-12.829799999999999,14.3688,19.239800000000002,165.0,181.0,157.0
-11.297,8.8058,22.279,221.0,160.0,120.0
-9.043800000000001,9.820500000000001,20.2968,165.0,182.0,145.0
-10.624400000000001,14.706199999999999,23.9327,251.0,255.0,254.0
-9.255099999999999,10.5247,22.0498,172.0,211.0,129.0
-8.0913,15.5588,20.1145,136.0,171.0,98.0
-11.3992,14.315,24.073800000000002,181.0,196.0,88.0
-12.6637,10.828899999999999,19.558500000000002,181.0,173.0,114.0
-6.2194,20.4026,23.4114,149.0,189.0,109.0
-7.226100000000001,15.0113,10.697099999999999,112.0,159.0,101.0
-14.2345,9.0749,20.1491,165.0,186.0,126.0
-10.659,13.984399999999999,24.7359,181.0,190.0,121.0
-10.653500000000001,13.7134,16.5234,153.0,183.0,139.0
-10.1997,14.663100000000002,20.955199999999998,119.0,169.0,113.0
-2.4518999999999997,17.1387,18.3445,150.0,165.0,132.0
-9.0276,16.5299,20.4539,149.0,176.0,109.0
-10.715900000000001,14.37,20.964299999999998,157.0,174.0,149.0
-11.4943,11.1836,19.2239,228.0,196.0,123.0
-9.0435,11.459900000000001,18.1931,103.0,151.0,72.0
-8.269400000000001,19.0689,22.122600000000002,160.0,187.0,155.0
-11.6211,15.2473,17.2221,158.0,182.0,126.0
-11.4202,13.6003,17.616100000000003,249.0,246.0,243.0
-6.829599999999999,17.2356,8.215,158.0,108.0,80.0
-9.155199999999999,9.6259,22.4887,152.0,185.0,122.0
-7.6562,19.412399999999998,22.3432,157.0,192.0,153.0
-8.4181,14.2234,15.081700000000001,177.0,128.0,118.0
-8.611,18.361900000000002,21.4874,148.0,181.0,131.0
-6.972200000000001,17.1587,5.6229000000000005,97.0,57.0,51.0
-7.7524,15.5667,25.231399999999997,255.0,255.0,255.0
-10.4079,13.5715,25.1216,185.0,180.0,118.0
-8.8278,13.569899999999999,16.0241,193.0,196.0,184.0
-9.253599999999999,13.360199999999999,20.4204,80.0,118.0,51.0
-10.4689,13.4168,21.8086,124.0,164.0,125.0
-11.661000000000001,13.0248,25.0375,186.0,165.0,122.0
-10.308399999999999,10.6987,18.5136,151.0,168.0,110.0
-7.1302,16.9483,15.776200000000001,152.0,129.0,134.0
-9.1905,13.564300000000001,20.3929,98.0,132.0,82.0
-6.832299999999999,17.2823,7.593,135.0,82.0,62.0
-9.131400000000001,9.4633,22.5307,163.0,179.0,136.0
-7.4262,16.825699999999998,17.769,220.0,175.0,145.0
-11.4183,9.722100000000001,18.279500000000002,255.0,238.0,216.0
-7.6636999999999995,16.093799999999998,21.5021,105.0,155.0,71.0
-4.3259,14.404,10.6438,254.0,248.0,237.0
-8.8951,16.4244,18.4105,187.0,160.0,138.0
-12.7004,16.146,25.176399999999997,211.0,208.0,150.0
-10.5038,12.4313,26.0277,181.0,174.0,120.0
-13.5525,16.656000000000002,26.0264,205.0,197.0,139.0
-4.1601,16.8933,17.034,121.0,166.0,102.0
-8.6131,13.1919,16.3109,247.0,242.0,244.0
-4.8479,17.1998,16.7763,152.0,182.0,127.0
-7.9142,14.544599999999999,20.4495,167.0,186.0,137.0
-10.5495,13.780600000000002,24.9272,178.0,182.0,125.0
-7.940300000000001,15.1665,20.2439,103.0,150.0,118.0
-4.2909999999999995,14.385600000000002,10.591299999999999,255.0,251.0,240.0
-11.6654,13.4321,24.6877,187.0,174.0,116.0
-9.6707,13.144900000000002,15.973899999999999,250.0,253.0,254.0
-7.07,17.0608,14.929200000000002,188.0,144.0,133.0
-7.5964,15.8791,21.9406,122.0,189.0,69.0
-5.9586,14.544,11.047,86.0,120.0,65.0
-9.9555,12.683900000000001,20.263,133.0,156.0,125.0
-3.7176,15.6829,17.1008,156.0,179.0,123.0
-1.7127,17.193,18.7304,143.0,176.0,128.0
-7.213799999999999,17.207900000000002,11.1237,161.0,110.0,84.0
-7.0076,20.1703,23.3348,155.0,177.0,119.0
-10.899799999999999,12.713099999999999,25.628400000000003,178.0,192.0,115.0
-10.8109,13.369200000000001,25.1205,172.0,191.0,113.0
-8.4085,15.234200000000001,20.1713,107.0,148.0,67.0
-6.837600000000001,14.0947,10.0474,138.0,167.0,167.0
-14.352500000000001,9.0581,20.0732,238.0,246.0,255.0
-9.2959,9.9252,19.5428,166.0,166.0,53.0
-7.529800000000001,16.7833,18.612000000000002,197.0,153.0,132.0
-7.3674,18.1955,21.6646,136.0,181.0,120.0
-3.008,16.5043,17.674899999999997,140.0,183.0,141.0
-8.9116,16.5814,20.3707,186.0,192.0,166.0
-9.6221,15.6198,20.455499999999997,100.0,153.0,99.0
-7.985399999999999,16.1979,21.4533,241.0,227.0,215.0
-7.765,16.409599999999998,19.970499999999998,201.0,154.0,121.0
-7.6468,17.0347,16.0522,181.0,162.0,172.0
-9.4453,11.1793,21.6597,80.0,115.0,78.0
-11.111600000000001,11.7826,26.2467,189.0,159.0,116.0
-7.0808,16.947100000000002,15.379000000000001,190.0,151.0,136.0
-9.3446,12.656600000000001,20.5402,118.0,151.0,122.0
-7.897600000000001,15.770000000000001,24.0858,236.0,241.0,255.0
-9.2768,11.439499999999999,17.7988,254.0,255.0,255.0
-14.116200000000001,8.984300000000001,20.0466,153.0,179.0,111.0
-7.5227,17.1247,20.9563,255.0,253.0,249.0
-7.3811,16.264300000000002,11.072799999999999,154.0,145.0,143.0
-10.6431,14.9623,18.996399999999998,141.0,174.0,99.0
-7.2983,17.1079,13.7115,248.0,234.0,214.0
-8.9208,16.4647,20.3749,151.0,167.0,101.0
-2.4277,17.3002,18.546000000000003,120.0,144.0,85.0
-7.3342,16.9492,15.0258,181.0,132.0,108.0
-7.002,16.928099999999997,8.422699999999999,98.0,95.0,98.0
-5.4252,17.413600000000002,16.694,164.0,189.0,132.0
-10.6422,13.999900000000002,21.232300000000002,117.0,164.0,132.0
-10.7958,13.653799999999999,24.9192,176.0,191.0,121.0
-7.9016,17.6072,20.9943,136.0,170.0,98.0
-6.4127,18.8474,22.6019,137.0,182.0,111.0
-9.246,8.666,20.165399999999998,181.0,181.0,123.0
-4.9212,14.311599999999999,10.7438,126.0,158.0,96.0
-1.8858,17.2129,18.665399999999998,144.0,161.0,121.0
-9.2316,17.4186,14.6615,110.0,172.0,80.0
-6.210100000000001,17.034399999999998,15.8874,143.0,186.0,126.0
-10.7184,15.587100000000001,19.7134,133.0,171.0,143.0
-10.2097,13.1768,22.3142,193.0,205.0,198.0
-5.9167,14.571100000000001,11.0297,71.0,119.0,54.0
-9.9956,13.7528,21.9447,126.0,173.0,132.0
-6.1973,19.3556,23.0887,198.0,210.0,185.0
-5.5834,16.989,16.2524,127.0,175.0,122.0
-7.632,14.938699999999999,23.1078,157.0,194.0,118.0
-9.7392,12.811900000000001,20.3351,114.0,145.0,120.0
-3.9964,16.453,17.025399999999998,134.0,175.0,120.0
-9.473700000000001,16.808799999999998,15.093799999999998,143.0,174.0,132.0
-7.2283,16.6845,16.9869,156.0,117.0,105.0
-8.3065,15.779599999999999,19.7221,252.0,251.0,245.0
-10.6763,9.7053,20.3243,191.0,161.0,115.0
-7.99,15.9495,19.8924,134.0,176.0,99.0
-6.7594,17.1558,8.118599999999999,155.0,102.0,78.0
-9.2254,17.066200000000002,14.870800000000001,122.0,169.0,90.0
-12.809899999999999,9.3029,18.6635,185.0,204.0,159.0
-13.272,9.2296,19.2027,139.0,168.0,96.0
-7.1244000000000005,17.210700000000003,10.0308,114.0,71.0,59.0
-8.6406,14.712200000000001,20.2513,100.0,144.0,73.0
-7.0088,17.7023,21.6157,161.0,190.0,145.0
-10.0061,12.834499999999998,25.843,193.0,172.0,135.0
-11.3899,8.572799999999999,22.4849,216.0,201.0,180.0
-0.3594,16.389200000000002,18.947400000000002,152.0,181.0,130.0
-9.7854,10.9676,18.2833,245.0,250.0,254.0
-7.5326,15.847700000000001,24.5049,147.0,170.0,149.0
-10.947999999999999,13.897,21.1503,135.0,166.0,137.0
-12.0209,14.5565,17.6069,155.0,179.0,134.0
-6.5945,19.1511,22.682299999999998,148.0,190.0,133.0
-4.204,17.450499999999998,17.7512,137.0,163.0,116.0
-7.828,17.136499999999998,20.6203,128.0,168.0,105.0
-7.6375,16.0309,23.8076,173.0,125.0,107.0
-8.8721,14.1454,20.2462,120.0,148.0,97.0
-7.8094,16.3049,22.1778,169.0,110.0,87.0
-7.6904,16.5624,19.232499999999998,181.0,138.0,132.0
-8.2701,13.002600000000001,21.138399999999997,105.0,143.0,102.0
-8.1653,17.5712,20.878,146.0,173.0,111.0
-10.2285,10.195,20.8503,183.0,160.0,122.0
-7.6651,15.967300000000002,23.6784,194.0,173.0,164.0
-9.9592,13.017699999999998,25.6648,192.0,172.0,163.0
-9.4185,16.2595,19.7788,150.0,134.0,102.0
-4.4965,16.342200000000002,16.7134,119.0,167.0,121.0
-10.1134,15.8803,19.4238,111.0,155.0,64.0
-7.9014,18.1324,21.3068,180.0,199.0,151.0
-1.7475999999999998,15.590599999999998,18.5201,183.0,194.0,160.0
-7.6466,16.0503,22.6,119.0,169.0,72.0
-11.7454,10.544599999999999,18.820600000000002,168.0,191.0,129.0
-10.9046,11.921800000000001,26.2743,191.0,172.0,122.0
-10.7506,13.004,22.043499999999998,108.0,155.0,101.0
-11.3888,15.5109,23.5654,249.0,255.0,255.0
-1.4148,16.735,18.6466,130.0,177.0,120.0
-7.1278,15.908700000000001,10.836500000000001,88.0,130.0,103.0
-10.2344,10.8406,18.6264,153.0,175.0,145.0
-4.6704,16.897000000000002,16.6992,127.0,167.0,108.0
-4.490799999999999,17.1605,16.928099999999997,234.0,230.0,219.0
-10.1974,13.266900000000001,22.2548,140.0,166.0,124.0
-7.8316,16.2705,19.485,252.0,255.0,255.0
-6.9517,19.0546,22.3872,147.0,189.0,138.0
-6.834899999999999,17.189,8.723799999999999,127.0,73.0,54.0
-6.3015,20.3113,23.3876,161.0,196.0,105.0
-9.606,16.2103,19.0799,120.0,165.0,93.0
-8.0166,16.8928,16.7725,171.0,138.0,137.0
-1.4982,16.0475,18.5624,120.0,173.0,100.0
-12.551499999999999,15.920799999999998,24.5718,207.0,212.0,147.0
-6.9098999999999995,17.1591,10.1762,110.0,57.0,43.0
-7.767,16.4947,20.819499999999998,166.0,125.0,108.0
-10.936,9.6215,21.6877,192.0,176.0,142.0
-6.708600000000001,17.2767,6.5196000000000005,139.0,97.0,77.0
-14.1343,8.8444,20.0801,253.0,239.0,220.0
-11.4078,11.6885,26.0425,246.0,248.0,253.0
-7.4768,16.7574,18.8762,194.0,151.0,134.0
-9.9097,16.0864,19.2951,121.0,162.0,111.0
-11.3509,14.721100000000002,23.5776,211.0,210.0,170.0
-2.3005,17.396800000000002,18.7192,180.0,192.0,138.0
-9.0091,10.569199999999999,19.7465,106.0,138.0,78.0
-10.3192,15.130199999999999,18.9251,155.0,184.0,120.0
-6.7627999999999995,16.7969,15.382499999999999,177.0,182.0,138.0
-7.7015,17.0429,16.2353,180.0,140.0,131.0
-10.723199999999999,13.4192,17.2069,98.0,137.0,74.0
-0.3598,16.3014,18.912699999999997,152.0,188.0,126.0
-10.8032,9.525400000000001,21.1212,180.0,165.0,113.0
-12.0008,14.7838,17.6333,156.0,183.0,127.0
-9.8649,13.120899999999999,16.0163,138.0,152.0,123.0
-4.4174999999999995,16.0414,16.7498,106.0,155.0,67.0
-0.3556,16.402900000000002,18.8697,254.0,255.0,254.0
-7.668800000000001,16.1199,24.1753,143.0,114.0,116.0
-9.6135,15.928400000000002,19.2671,108.0,152.0,90.0
-7.5954999999999995,15.2,23.25,163.0,195.0,118.0
-11.5385,10.5679,18.7868,159.0,182.0,114.0
-8.666,16.5393,17.7697,248.0,253.0,255.0
-11.8756,14.8595,19.4964,135.0,165.0,122.0
-7.313400000000001,19.264,22.3295,145.0,188.0,131.0
-7.9369,19.7022,22.426099999999998,156.0,189.0,167.0
-11.551300000000001,12.5333,22.0313,136.0,172.0,149.0
-10.554,9.983,19.780800000000003,246.0,250.0,254.0
-14.1982,16.8346,25.929799999999997,221.0,215.0,202.0
-6.273,20.9013,23.435200000000002,237.0,237.0,231.0
-7.6301,16.658,18.8798,178.0,138.0,124.0
-11.0068,14.6365,23.9872,172.0,178.0,106.0
-9.7832,10.2969,19.981099999999998,172.0,159.0,109.0
-9.1551,9.6217,22.8004,167.0,192.0,132.0
-5.8210999999999995,14.3258,10.5435,106.0,150.0,85.0
-10.4581,16.245,19.3989,254.0,254.0,254.0
-6.8569,16.9075,9.5831,84.0,60.0,54.0
-6.1127,14.562100000000001,11.1914,100.0,140.0,72.0
-9.7631,14.017,21.8407,219.0,219.0,199.0
-7.464899999999999,15.2727,21.8943,254.0,254.0,254.0
-7.6972,17.316200000000002,20.881800000000002,109.0,163.0,84.0
-5.2132,14.355200000000002,10.8893,149.0,171.0,113.0
-11.373,15.3577,16.7151,148.0,177.0,122.0
-14.046800000000001,16.5873,25.6732,206.0,206.0,150.0
-7.6077,14.940999999999999,22.8477,159.0,195.0,115.0
-11.666,15.3146,23.011,250.0,254.0,254.0
-4.148899999999999,17.3009,17.4748,117.0,146.0,82.0
-9.975000000000001,15.2388,18.9573,141.0,158.0,118.0
-7.3637,16.7663,15.1761,251.0,254.0,255.0
-12.75,15.629199999999999,23.7767,206.0,207.0,152.0
-7.6127,15.9671,21.6965,113.0,182.0,61.0
-9.7864,10.9367,18.4269,150.0,163.0,101.0
-8.8588,12.3324,17.0563,175.0,142.0,142.0
-8.5509,13.727400000000001,15.735199999999999,155.0,124.0,128.0
-6.941999999999999,17.0521,5.972,72.0,55.0,53.0
-6.2974000000000006,20.6493,23.4485,154.0,189.0,121.0
-7.1583,15.284600000000001,13.2269,179.0,200.0,110.0
-9.1139,10.6689,18.802,239.0,232.0,215.0
-4.625900000000001,17.342,17.347299999999997,126.0,164.0,142.0
-9.3695,13.275400000000001,16.653200000000002,133.0,163.0,110.0
-9.0047,11.2342,21.723200000000002,105.0,122.0,106.0
-5.2174,14.247099999999998,10.2975,99.0,149.0,76.0
-7.4295,15.6724,21.575400000000002,255.0,255.0,252.0
-7.6792,17.3868,20.969099999999997,121.0,165.0,100.0
-7.513300000000001,15.1645,22.0486,175.0,218.0,208.0
-7.9990000000000006,18.151999999999997,21.390500000000003,149.0,185.0,119.0
-10.8726,11.4924,26.648600000000002,197.0,173.0,124.0
-10.2999,14.6947,20.9344,107.0,158.0,106.0
-9.204600000000001,10.8184,18.807199999999998,196.0,183.0,131.0
-8.9327,11.558,17.836299999999998,201.0,193.0,167.0
-11.0477,12.3008,22.5883,107.0,150.0,108.0
-12.1709,10.1044,18.7639,161.0,188.0,146.0
-8.0458,15.2219,20.3212,138.0,166.0,131.0
-11.5899,15.5869,23.6297,196.0,205.0,137.0
-6.916600000000001,19.35,22.561899999999998,134.0,186.0,126.0
-7.678999999999999,16.4971,19.064,246.0,227.0,219.0
-10.8127,14.133000000000001,24.5409,179.0,202.0,111.0
-7.5457,15.886700000000001,12.061,161.0,115.0,102.0
-10.2862,15.655,21.520400000000002,202.0,192.0,147.0
-11.0384,11.9632,26.1677,192.0,159.0,116.0
-11.3707,12.038,25.8523,195.0,157.0,122.0
-10.4784,16.7172,15.0569,201.0,203.0,186.0
-9.1519,9.7122,22.4481,160.0,194.0,130.0
-10.134500000000001,17.1726,14.724799999999998,120.0,172.0,96.0
-9.469,17.3984,14.657300000000001,106.0,174.0,92.0
-9.1184,9.3982,22.7015,253.0,253.0,254.0
-10.3359,9.955,19.9816,182.0,166.0,120.0
-13.7347,9.4769,19.6858,178.0,196.0,145.0
-10.2876,13.386500000000002,22.0309,130.0,170.0,137.0
-7.065799999999999,15.873000000000001,10.988100000000001,80.0,112.0,94.0
-8.6084,13.9427,15.459700000000002,212.0,177.0,163.0
-10.9179,15.396299999999998,22.4633,237.0,234.0,237.0
-3.9534,16.8546,17.1784,131.0,172.0,111.0
-11.1987,12.1021,22.5802,101.0,144.0,97.0
-6.521100000000001,17.0439,15.650400000000001,162.0,196.0,147.0
-2.6804,17.220299999999998,17.900299999999998,255.0,255.0,255.0
-10.8249,13.627,21.4086,104.0,153.0,112.0
-11.3275,10.4771,18.6282,163.0,185.0,130.0
-8.6666,17.754900000000003,14.3149,248.0,252.0,251.0
-2.5155,16.7745,18.0506,120.0,160.0,90.0
-9.5981,9.5721,19.4522,180.0,148.0,77.0
-8.468499999999999,14.2375,15.0569,185.0,135.0,121.0
-7.6378,15.8811,23.0987,255.0,255.0,255.0
-6.916300000000001,17.7069,21.6815,254.0,253.0,251.0
-9.639899999999999,9.823,19.0865,254.0,255.0,253.0
-11.276,15.4359,16.5502,196.0,206.0,195.0
-10.3126,13.7332,25.046200000000002,187.0,178.0,127.0
-9.6125,16.161,19.1219,119.0,166.0,89.0
-6.9468000000000005,20.1287,23.166900000000002,155.0,176.0,121.0
-9.6921,13.353599999999998,19.9469,255.0,255.0,254.0
-7.8752,15.7183,20.0213,129.0,166.0,98.0
-7.1434999999999995,18.065800000000003,21.729799999999997,140.0,185.0,126.0
-10.7143,15.182100000000002,19.2632,151.0,175.0,109.0
-11.055,13.5686,17.2333,128.0,165.0,113.0
-6.0505,16.435,15.8308,253.0,255.0,254.0
-4.9247,14.1742,9.9857,105.0,160.0,73.0
-10.7402,9.753499999999999,20.122899999999998,192.0,146.0,114.0
-10.607,12.6304,25.831500000000002,180.0,178.0,118.0
-0.24689999999999998,16.6,19.171599999999998,164.0,193.0,149.0
-7.696,16.0233,21.313299999999998,253.0,255.0,254.0
-11.2596,14.2713,18.83,238.0,247.0,249.0
-12.0189,14.609900000000001,17.6054,151.0,176.0,125.0
-4.4277999999999995,17.0994,16.9708,152.0,174.0,129.0
-7.1577,16.9241,15.9713,142.0,112.0,115.0
-13.0512,16.1971,25.1683,206.0,212.0,153.0
-8.1943,14.808499999999999,20.5179,115.0,151.0,121.0
-7.0979,19.3064,22.4342,158.0,193.0,129.0
-8.255600000000001,18.817500000000003,21.9233,152.0,185.0,149.0
-10.827,14.7008,24.0536,186.0,203.0,104.0
-7.137300000000001,16.947400000000002,10.3318,86.0,87.0,93.0
-1.4866000000000001,15.8324,18.6143,105.0,162.0,107.0
-9.6472,9.085600000000001,19.7932,255.0,244.0,227.0
-9.9236,16.9456,15.043599999999998,126.0,175.0,102.0
-10.134400000000001,13.5374,22.0368,123.0,165.0,119.0
-8.6506,12.981599999999998,16.5661,254.0,253.0,254.0
-0.42469999999999997,15.849499999999999,18.8162,254.0,254.0,254.0
-11.8765,14.157900000000001,17.5599,156.0,177.0,160.0
-2.2506000000000004,17.3307,18.5689,172.0,201.0,142.0
-11.0946,9.1728,21.5242,185.0,166.0,121.0
-10.7455,12.4724,25.9183,175.0,169.0,112.0
-7.2658000000000005,16.919500000000003,14.0315,182.0,127.0,105.0
-7.0409,17.2923,5.1654,72.0,48.0,43.0
-4.8537,16.8325,16.395100000000003,254.0,255.0,255.0
-11.450299999999999,15.0231,17.1266,173.0,194.0,143.0
-4.5222999999999995,13.5028,9.259599999999999,154.0,177.0,183.0
-8.2743,13.159699999999999,21.0861,94.0,134.0,81.0
0.7372,16.4919,18.9653,254.0,254.0,254.0
-7.5048,17.9863,21.465899999999998,133.0,179.0,127.0
-9.0061,16.3844,20.3072,161.0,170.0,109.0
-9.7538,14.7623,21.157799999999998,129.0,166.0,99.0
-3.1412000000000004,16.5575,17.607999999999997,132.0,178.0,122.0
-10.5426,13.092799999999999,22.1383,102.0,149.0,102.0
-8.2856,12.6094,21.303,115.0,145.0,103.0
-7.9575000000000005,16.9317,16.5732,250.0,252.0,252.0
-1.5017,16.9995,18.7213,148.0,184.0,155.0
-7.703500000000001,15.5666,24.9879,254.0,254.0,253.0
-12.0356,11.0285,19.3984,141.0,150.0,64.0
-12.366000000000001,14.8277,19.5252,139.0,164.0,115.0
-12.9944,9.2669,18.7944,159.0,172.0,119.0
-10.981200000000001,15.4742,22.8112,155.0,110.0,102.0
-2.6771,16.930899999999998,17.9901,115.0,158.0,133.0
-14.4242,9.0296,20.1974,169.0,186.0,129.0
-7.7194,16.5089,20.7225,171.0,128.0,109.0
-11.1045,13.4271,24.9892,171.0,192.0,104.0
-10.959900000000001,9.6171,21.7349,195.0,178.0,152.0
-9.9707,13.4932,22.1165,249.0,254.0,254.0
-7.194000000000001,16.3889,10.4977,51.0,52.0,64.0
-8.0238,15.2083,13.3853,177.0,145.0,142.0
-2.0926,16.3446,18.2148,121.0,164.0,90.0
-7.001200000000001,17.0762,5.2835,90.0,63.0,53.0
-9.075,11.7276,18.9969,98.0,147.0,90.0
-8.0324,16.1723,21.7856,232.0,220.0,192.0
-7.1075,17.2376,10.269200000000001,115.0,79.0,71.0
-7.163600000000001,17.016000000000002,10.5815,129.0,87.0,71.0
-7.140499999999999,17.1763,9.684,118.0,73.0,60.0
-10.2546,11.571,26.7647,197.0,176.0,128.0
-8.662,16.6655,20.4305,129.0,162.0,88.0
-12.841800000000001,16.2435,25.3778,208.0,208.0,152.0
-1.7565999999999997,17.1969,18.6198,245.0,251.0,252.0
-9.6344,10.8625,18.2845,235.0,225.0,200.0
-7.1607,17.8929,21.6473,130.0,176.0,118.0
-9.8977,14.553099999999999,21.189700000000002,109.0,160.0,92.0
-10.41,11.429599999999999,26.7982,183.0,186.0,122.0
-8.8228,12.292,17.1177,167.0,134.0,132.0
-11.155800000000001,17.2351,14.913100000000002,246.0,248.0,243.0
-8.1717,14.870800000000001,14.078199999999999,178.0,129.0,116.0
-11.0132,11.8822,26.243899999999996,189.0,165.0,115.0
-7.2970999999999995,17.1273,12.3956,151.0,109.0,91.0
-9.1988,11.4927,17.8013,250.0,252.0,254.0
-11.3084,13.3378,24.9473,181.0,181.0,105.0
-11.4337,10.472199999999999,18.6491,150.0,175.0,101.0
-9.0881,13.259799999999998,20.5681,100.0,140.0,95.0
-9.8179,13.241900000000001,16.655,140.0,173.0,117.0
-11.2225,13.0699,21.5606,124.0,166.0,134.0
-7.2189000000000005,17.210800000000003,11.3721,152.0,99.0,78.0
-12.3185,10.3085,19.0064,165.0,193.0,128.0
-7.431400000000001,16.6984,19.5272,192.0,185.0,191.0
-14.1987,16.6903,25.775599999999997,220.0,222.0,219.0
-10.521700000000001,10.6281,22.2866,222.0,236.0,235.0
-11.2583,8.7249,21.2849,206.0,165.0,143.0
-11.452900000000001,14.2282,24.131800000000002,186.0,190.0,93.0
-3.2960999999999996,17.555799999999998,18.0646,151.0,174.0,114.0
-11.3194,13.760200000000001,17.2698,139.0,175.0,124.0
-13.046299999999999,10.1227,19.189999999999998,151.0,170.0,112.0
-7.6183,15.443399999999999,12.9967,170.0,202.0,107.0
-3.7067,16.3912,17.1903,131.0,174.0,102.0
-11.1331,9.0122,21.081,197.0,158.0,119.0
-7.6072,15.863900000000001,22.3866,122.0,190.0,86.0
-10.1151,13.4082,16.1163,136.0,168.0,119.0
-9.4064,16.6793,15.178600000000001,253.0,249.0,243.0
-3.4013,17.1458,17.6624,141.0,169.0,142.0
-7.2712,16.7095,10.222199999999999,183.0,170.0,161.0
-9.1978,12.617,20.5888,93.0,132.0,93.0
-2.1592000000000002,17.368100000000002,18.719,144.0,170.0,107.0
-2.4409,15.545200000000001,17.7812,253.0,251.0,246.0
-8.6213,14.100999999999999,20.538600000000002,122.0,149.0,73.0
-8.071299999999999,14.842600000000001,14.0146,233.0,232.0,236.0
-9.6589,15.615499999999999,20.4096,211.0,219.0,170.0
-5.4814,14.4947,10.9617,124.0,148.0,95.0
-7.0454,16.9365,14.036100000000001,152.0,106.0,85.0
-8.7821,11.703199999999999,17.6195,227.0,230.0,210.0
-8.7545,16.758899999999997,20.5395,144.0,163.0,95.0
-9.6113,12.9551,20.3753,107.0,138.0,119.0
-8.671199999999999,12.9952,20.8345,108.0,142.0,113.0
-11.0585,15.499199999999998,22.9212,159.0,145.0,102.0
-9.0101,11.6149,18.202299999999997,117.0,154.0,83.0
-13.7425,9.7848,19.9378,165.0,194.0,136.0
-7.446999999999999,18.2098,21.625700000000002,134.0,181.0,124.0
-3.1063,15.836500000000001,17.2872,152.0,182.0,135.0
-8.886,11.6024,17.9192,200.0,216.0,171.0
-7.358499999999999,15.4085,25.033300000000004,131.0,155.0,80.0
-12.634699999999999,10.641499999999999,19.5259,155.0,176.0,111.0
-12.953000000000001,9.3647,18.7779,145.0,179.0,119.0
-11.2936,10.3004,18.509800000000002,160.0,181.0,128.0
-8.9309,10.8924,19.633,177.0,203.0,155.0
-8.7541,11.7623,17.435200000000002,255.0,255.0,255.0
-8.575199999999999,14.6965,20.3468,111.0,158.0,81.0
-8.3406,16.727,17.2208,251.0,253.0,252.0
-9.6284,16.8708,15.0707,124.0,174.0,110.0
-10.5364,11.2511,21.4872,215.0,224.0,203.0
-10.1888,10.6525,22.2908,109.0,145.0,99.0
-10.7223,17.305,14.7895,120.0,164.0,77.0
-10.5005,12.6218,25.876700000000003,185.0,178.0,126.0
-9.0593,9.1722,20.055999999999997,186.0,170.0,80.0
-4.1517,17.494799999999998,17.7838,154.0,174.0,116.0
-8.8194,11.5776,17.7394,254.0,254.0,255.0
-10.5508,11.4807,26.731500000000004,190.0,190.0,131.0
-11.1073,9.0741,20.9353,202.0,166.0,131.0
-13.6996,16.5435,25.6695,204.0,208.0,140.0
-3.3558999999999997,15.893099999999999,17.2317,145.0,182.0,145.0
-7.7587,16.3272,19.453699999999998,251.0,255.0,254.0
-9.109499999999999,10.462200000000001,21.4975,194.0,221.0,165.0
-9.4617,16.112399999999997,20.0758,221.0,206.0,202.0
-7.106800000000001,15.227099999999998,11.0267,102.0,138.0,126.0
-10.6214,15.327399999999999,19.434,127.0,155.0,94.0
-5.9662,14.3951,10.691,100.0,136.0,73.0
-9.9977,10.6866,18.3657,180.0,197.0,169.0
-9.4793,11.1948,18.0988,203.0,198.0,181.0
-3.7817999999999996,16.9406,17.2634,161.0,166.0,124.0
-8.7814,17.7373,14.3849,148.0,178.0,130.0
-8.2964,14.437800000000001,14.805399999999999,227.0,215.0,216.0
-12.4355,15.761700000000001,24.223,202.0,209.0,141.0
-3.7086,14.3394,9.9576,138.0,171.0,100.0
-9.7832,10.2973,20.0808,174.0,155.0,109.0
-12.2988,15.9244,24.6196,207.0,215.0,152.0
-6.7074,16.845299999999998,15.332899999999999,225.0,235.0,233.0
-10.2793,10.6898,22.2458,102.0,145.0,92.0
-12.4382,15.6137,23.8341,203.0,211.0,148.0
-9.8911,12.7177,25.9617,251.0,252.0,254.0
-10.9281,9.3504,20.9806,191.0,169.0,119.0
-7.6126,15.528,24.7927,139.0,142.0,95.0
-10.9857,15.8231,19.9129,195.0,219.0,223.0
-6.343699999999999,20.687,23.3855,248.0,250.0,250.0
-4.160500000000001,17.4675,17.7822,144.0,165.0,103.0
-9.7216,16.0119,20.4873,196.0,174.0,148.0
-6.811300000000001,19.6009,22.7501,134.0,193.0,105.0
-9.1686,9.7103,22.5489,167.0,195.0,136.0
-5.2557,16.453200000000002,16.284499999999998,137.0,183.0,142.0
-12.1488,10.4756,19.034699999999997,173.0,192.0,137.0
-7.305599999999999,17.1609,13.874,211.0,190.0,178.0
-6.961399999999999,17.2589,5.4266000000000005,97.0,69.0,69.0
-11.8835,13.323199999999998,24.729699999999998,242.0,244.0,252.0
-8.0269,16.7257,17.0342,249.0,251.0,249.0
-10.4069,13.070699999999999,25.5195,185.0,176.0,125.0
-5.1546,16.6386,16.3868,139.0,188.0,140.0
-7.835699999999999,16.3585,21.0288,141.0,101.0,85.0
-9.9612,15.977,19.348499999999998,101.0,150.0,85.0
-6.2730999999999995,16.8379,15.6788,207.0,223.0,227.0
-8.1594,14.795300000000001,14.222499999999998,186.0,151.0,147.0
-5.559200000000001,16.8512,16.179,147.0,191.0,116.0
-10.63,13.999600000000001,24.7408,185.0,194.0,128.0
-11.3448,14.3018,17.1399,141.0,176.0,123.0
-9.0724,13.4021,20.5311,108.0,153.0,129.0
-9.0475,11.466700000000001,18.901200000000003,126.0,172.0,103.0
-11.566899999999999,15.1555,19.700400000000002,147.0,172.0,135.0
-7.3950000000000005,17.2535,21.232599999999998,254.0,242.0,231.0
-7.598199999999999,15.2435,22.9977,167.0,201.0,105.0
-13.3319,9.770900000000001,19.3445,167.0,188.0,134.0
-8.7435,14.310500000000001,20.3614,92.0,143.0,83.0
-14.327699999999998,17.1844,26.173800000000004,242.0,250.0,254.0
-8.001900000000001,14.251800000000001,20.691599999999998,130.0,160.0,145.0
-12.0988,15.911100000000001,24.5748,211.0,215.0,152.0
-4.2659,17.4251,17.4955,164.0,198.0,135.0
-9.907399999999999,15.2489,20.6835,149.0,183.0,106.0
-9.2675,10.4713,21.8893,124.0,170.0,103.0
-10.5951,11.0217,21.8698,250.0,251.0,252.0
-7.299300000000001,17.0155,13.8549,164.0,109.0,81.0
-10.390099999999999,9.9108,20.4372,157.0,143.0,93.0
-5.5774,13.7468,9.5584,139.0,169.0,173.0
-8.9667,9.9343,21.093,167.0,193.0,138.0
-8.5777,12.945400000000001,20.9421,95.0,119.0,76.0
-11.1945,12.064400000000001,25.9667,193.0,165.0,126.0
-4.6084,16.1462,16.639200000000002,106.0,153.0,81.0
-11.9917,15.867600000000001,24.434,210.0,214.0,154.0
-7.8806,16.359099999999998,21.2245,138.0,136.0,93.0
-8.0105,18.2916,21.5121,138.0,178.0,103.0
-11.6041,11.607199999999999,22.392,114.0,145.0,106.0
-9.7691,17.657,14.443,118.0,167.0,97.0
-7.1801,16.9526,9.926599999999999,207.0,182.0,169.0
-11.5627,14.960399999999998,19.479499999999998,179.0,192.0,168.0
-7.016,14.9228,10.8745,104.0,150.0,130.0
-8.21,18.3595,21.5343,152.0,182.0,136.0
-6.600300000000001,17.1148,6.334,104.0,61.0,50.0
-9.1074,11.2207,18.2557,137.0,157.0,127.0
-7.7091,16.1791,23.4181,187.0,142.0,124.0
-8.668800000000001,12.518799999999999,16.7302,255.0,255.0,255.0
-9.9526,14.655299999999999,21.049200000000003,118.0,169.0,102.0
-6.4258,20.4401,23.4414,150.0,179.0,104.0
-8.771700000000001,16.4716,17.9844,251.0,253.0,255.0
-3.7043,14.288400000000001,9.7155,117.0,162.0,86.0
-7.3174,15.013399999999999,10.5909,119.0,162.0,130.0
-13.695699999999999,9.5776,19.6827,172.0,193.0,140.0
-7.8074,16.3733,20.2682,247.0,234.0,201.0
0.26589999999999997,16.3599,18.927,251.0,255.0,254.0
-7.4281,18.093400000000003,21.5691,130.0,185.0,121.0
-6.6094,14.8729,11.5564,247.0,240.0,224.0
-7.7623999999999995,18.9011,22.007099999999998,138.0,177.0,117.0
-10.3261,13.4934,25.207800000000002,181.0,185.0,117.0
-9.0262,11.2243,18.756700000000002,102.0,154.0,76.0
-5.5137,14.6204,11.1847,231.0,208.0,178.0
-9.4452,13.461,20.0637,141.0,157.0,117.0
-10.0884,13.768600000000001,25.0593,230.0,232.0,231.0
-7.3225,16.8917,16.819899999999997,177.0,127.0,113.0
-9.100999999999999,11.2219,21.0531,141.0,189.0,93.0
-8.838799999999999,16.5326,20.4118,140.0,173.0,87.0
-7.4958,15.5993,10.2979,98.0,142.0,113.0
-9.8978,12.2095,20.5817,95.0,125.0,60.0
-9.0668,10.7826,19.4068,74.0,114.0,59.0
-6.5414,20.4842,23.4648,147.0,171.0,101.0
-12.8396,16.298199999999998,25.568099999999998,210.0,208.0,155.0
-8.626100000000001,18.4282,21.560399999999998,158.0,186.0,143.0
-11.6188,13.3382,24.802599999999998,187.0,172.0,118.0
-11.3301,10.4246,18.593,143.0,166.0,100.0
-8.97,10.2641,21.144,190.0,220.0,166.0
-9.8477,15.3488,20.6346,149.0,185.0,111.0
-7.9558,19.337,22.264,157.0,188.0,156.0
-7.8407,15.4221,20.0564,202.0,211.0,202.0
-7.987900000000001,15.1032,19.9928,216.0,223.0,225.0
-14.7619,8.941,20.152,255.0,242.0,229.0
-7.3077000000000005,15.920799999999998,25.691000000000003,248.0,252.0,251.0
-10.735999999999999,14.81,19.007199999999997,107.0,119.0,76.0
-10.5368,14.8504,20.7762,254.0,254.0,254.0
-10.152999999999999,14.4568,21.095,136.0,178.0,114.0
-11.862300000000001,14.6307,19.2429,159.0,174.0,145.0
-6.9229,17.2534,8.1239,133.0,82.0,66.0
-11.2068,8.876000000000001,21.0323,190.0,152.0,137.0
-9.096,11.7753,18.3587,181.0,185.0,146.0
-7.448200000000001,16.8182,15.7475,203.0,165.0,158.0
-7.2285,20.0835,23.0215,155.0,188.0,146.0
-8.816799999999999,13.6627,15.7776,252.0,253.0,254.0
-3.8575,17.3442,17.3288,255.0,255.0,255.0
-10.0352,11.2082,21.4119,77.0,103.0,62.0
-7.2813,14.6527,10.4545,123.0,133.0,129.0
-10.1243,16.7403,15.2388,246.0,247.0,248.0
-9.5419,10.9653,22.051299999999998,113.0,148.0,124.0
-7.4044,15.9756,24.329700000000003,226.0,228.0,220.0
-5.1131,14.2174,10.0963,102.0,120.0,67.0
-7.9554,18.3889,21.6143,146.0,180.0,123.0
-9.9672,10.2384,20.380200000000002,173.0,154.0,97.0
-8.5602,13.5738,20.813599999999997,101.0,140.0,124.0
-8.5075,15.2609,19.8679,95.0,129.0,55.0
-6.201700000000001,19.7533,23.3339,249.0,251.0,249.0
-11.3699,8.436399999999999,22.7,255.0,255.0,254.0
-7.258000000000001,17.0491,14.575,155.0,104.0,77.0
-11.709,16.036900000000003,24.8318,178.0,180.0,113.0
-14.261399999999998,17.1287,26.189899999999998,199.0,193.0,171.0
-9.1119,11.0433,21.2061,168.0,204.0,121.0
-6.888,17.1484,9.684099999999999,116.0,70.0,57.0
-2.3327,16.3961,18.0579,126.0,178.0,136.0
-9.0225,11.2707,18.5448,104.0,148.0,81.0
-8.8961,13.1152,20.6012,124.0,152.0,94.0
-9.0793,10.5632,19.5429,130.0,153.0,87.0
-7.161199999999999,17.1418,9.4693,139.0,95.0,75.0
-9.2966,16.2166,18.6996,251.0,253.0,255.0
-7.754999999999999,15.8685,23.2792,254.0,255.0,255.0
-12.848200000000002,9.2417,18.674599999999998,184.0,201.0,153.0
-12.107,15.9136,17.2233,128.0,166.0,100.0
-5.2519,16.0469,16.2381,253.0,253.0,253.0
-5.3298,16.4881,16.2497,134.0,178.0,139.0
-8.5638,16.589599999999997,17.719099999999997,210.0,202.0,209.0
-3.8598,16.1903,17.042099999999998,120.0,158.0,107.0
-6.1695,19.5487,23.2092,251.0,252.0,246.0
-13.469700000000001,10.3816,19.7924,229.0,198.0,159.0
-11.8744,15.597900000000001,17.4048,163.0,173.0,108.0
-7.506200000000001,16.6791,17.3512,198.0,155.0,134.0
-9.2084,9.818100000000001,22.703200000000002,175.0,204.0,141.0
-11.2103,14.726700000000001,23.7352,172.0,199.0,86.0
-11.2764,8.7026,21.2882,204.0,178.0,172.0
-10.352400000000001,13.2731,22.098499999999998,113.0,158.0,122.0
-4.274,16.5908,16.9026,127.0,167.0,99.0
-4.91,13.760800000000001,9.499,138.0,165.0,171.0
-7.6761,15.9224,22.4752,159.0,196.0,124.0
-7.4574,17.6462,21.3095,122.0,165.0,104.0
-10.6204,15.3836,19.4812,151.0,174.0,126.0
-6.6217,13.8759,9.8005,146.0,161.0,165.0
-12.0989,15.829299999999998,24.374499999999998,209.0,218.0,155.0
-0.5579,16.2358,18.851000000000003,151.0,191.0,123.0
-10.0219,11.5034,26.871299999999998,249.0,252.0,255.0
-9.966,10.24,20.4067,180.0,161.0,107.0
-6.9703,15.389800000000001,13.197600000000001,168.0,201.0,105.0
-6.704400000000001,17.2176,7.1326,118.0,76.0,62.0
-11.368300000000001,8.4321,21.7482,240.0,246.0,252.0
-10.563699999999999,14.7503,16.3245,153.0,177.0,164.0
-12.8863,15.991800000000001,24.6816,205.0,211.0,144.0
-13.3759,8.9706,19.364600000000003,152.0,169.0,104.0
-8.8573,16.5501,20.4419,143.0,167.0,83.0
-10.9985,12.0902,22.7902,204.0,207.0,196.0
-7.141400000000001,17.0403,15.4771,170.0,129.0,115.0
-11.309,8.9728,22.2799,222.0,198.0,186.0
-6.5062,20.3036,23.2412,167.0,186.0,127.0
-10.1632,14.669199999999998,20.961299999999998,109.0,162.0,94.0
-2.8085,16.3895,17.749200000000002,135.0,176.0,135.0
-9.045300000000001,12.024700000000001,21.0751,84.0,134.0,74.0
-10.8012,15.9588,19.8082,120.0,162.0,122.0
-2.1508,17.2526,18.5779,143.0,172.0,129.0
-6.5155,18.4452,22.3506,150.0,185.0,124.0
-13.8203,9.6197,19.9394,165.0,194.0,134.0
-9.955300000000001,14.5528,21.1449,116.0,164.0,95.0
-9.4399,11.289100000000001,21.4883,95.0,118.0,89.0
-2.2151,17.0439,18.368399999999998,147.0,168.0,130.0
-11.5745,15.401200000000001,16.907600000000002,133.0,169.0,105.0
-10.991,9.317599999999999,20.627599999999997,198.0,152.0,117.0
-7.5318,17.0776,16.0283,154.0,110.0,101.0
-2.6342,15.695899999999998,17.512800000000002,185.0,189.0,159.0
-11.3831,8.4734,21.5773,239.0,246.0,254.0
-8.929,12.321,20.9115,89.0,126.0,87.0
-9.633799999999999,15.895699999999998,20.269000000000002,117.0,75.0,66.0
-9.0546,11.1703,20.6977,142.0,183.0,109.0
-10.105699999999999,14.114199999999999,21.3957,106.0,158.0,110.0
-7.663399999999999,16.229499999999998,22.8129,172.0,134.0,122.0
-4.9511,16.1893,16.4282,118.0,150.0,106.0
-7.3723,16.808,15.2829,239.0,239.0,241.0
-8.3543,12.6774,21.176000000000002,121.0,146.0,103.0
-10.0544,12.163599999999999,26.323,201.0,177.0,135.0
-7.126399999999999,16.8545,16.328699999999998,212.0,212.0,222.0
-11.0073,9.483,20.2303,250.0,252.0,253.0
-3.7039000000000004,17.4438,17.6203,252.0,254.0,255.0
-11.483699999999999,13.7056,24.5671,187.0,192.0,107.0
-7.5016,16.793,17.5312,162.0,119.0,107.0
-9.2271,13.3912,20.4498,83.0,123.0,57.0
-9.1922,13.620299999999999,20.299,83.0,122.0,56.0
-11.4137,8.323500000000001,22.6832,217.0,208.0,196.0
-3.955,17.188,17.2607,157.0,172.0,123.0
-7.5725,16.3741,21.5624,255.0,247.0,229.0
-7.8376,16.422800000000002,21.386,180.0,151.0,126.0
-7.188999999999999,15.722800000000001,10.848099999999999,107.0,155.0,139.0
-9.6457,9.5167,19.450799999999997,207.0,173.0,131.0
-10.7653,9.5238,21.1156,222.0,191.0,162.0
-6.9757,17.2175,9.4167,105.0,58.0,48.0
-11.7723,15.4097,17.366899999999998,131.0,135.0,103.0
-6.9817,17.0033,7.123,88.0,62.0,55.0
-11.614099999999999,15.8972,24.313299999999998,209.0,210.0,154.0
-7.256799999999999,17.893800000000002,21.5894,139.0,183.0,135.0
-6.7054,19.5488,22.792299999999997,138.0,192.0,119.0
-8.9663,9.6227,21.1935,142.0,182.0,111.0
-11.3017,13.0598,21.445600000000002,193.0,197.0,176.0
-7.8059,16.0887,22.3972,168.0,159.0,130.0
-10.032499999999999,15.4425,19.2611,180.0,189.0,169.0
-3.7983999999999996,16.500999999999998,17.1737,130.0,176.0,113.0
-8.9529,11.55,18.2768,171.0,209.0,134.0
-7.394299999999999,15.783800000000001,25.0946,124.0,162.0,91.0
-9.086500000000001,11.9165,19.3102,249.0,251.0,254.0
-4.5184,17.3108,17.3706,115.0,147.0,83.0
-8.2009,15.7739,19.9179,131.0,169.0,103.0
-7.9821,15.8283,24.6223,247.0,245.0,248.0
-9.8191,13.2691,16.8218,135.0,168.0,113.0
-8.8001,17.799799999999998,21.039099999999998,155.0,184.0,126.0
-11.5383,12.059000000000001,22.328200000000002,100.0,144.0,103.0
-6.9897,17.2296,8.1652,122.0,72.0,60.0
-4.1563,17.2259,17.261499999999998,131.0,166.0,160.0
-10.2535,10.569199999999999,27.0897,213.0,199.0,197.0
-14.6786,9.0235,20.035,237.0,246.0,254.0
-9.9252,10.7893,22.1801,105.0,130.0,96.0
-0.5957,16.3938,18.8769,153.0,192.0,135.0
-8.4548,14.418600000000001,20.571900000000003,114.0,161.0,91.0
-5.8244,14.282800000000002,10.3892,109.0,150.0,82.0
-10.463000000000001,13.7532,16.2149,150.0,188.0,142.0
-7.2215,16.3158,10.330300000000001,161.0,203.0,160.0
-9.2578,9.669500000000001,19.7034,170.0,167.0,55.0
-11.9651,15.016499999999999,19.6365,155.0,176.0,139.0
-4.7313,17.3183,17.0126,142.0,184.0,100.0
-11.1662,14.257700000000002,18.793599999999998,248.0,253.0,255.0
-7.0309,17.0003,11.7713,247.0,236.0,223.0
-9.335,13.4465,20.288999999999998,104.0,137.0,104.0
-7.6576,17.2026,20.8016,129.0,160.0,99.0
-9.3969,13.614399999999998,20.055899999999998,102.0,125.0,85.0
-10.9598,15.007699999999998,19.291800000000002,137.0,166.0,117.0
-4.6102,17.4386,17.3844,162.0,202.0,136.0
-11.0534,15.457699999999999,22.9043,152.0,150.0,130.0
-10.5817,11.0193,18.945899999999998,167.0,179.0,147.0
-10.0968,13.6901,21.8892,101.0,151.0,93.0
-7.239199999999999,16.583000000000002,10.2099,97.0,95.0,98.0
-7.8531,15.667900000000001,25.867099999999997,253.0,254.0,254.0
-10.2404,10.6489,22.2884,111.0,149.0,106.0
-8.840399999999999,17.887700000000002,21.0925,255.0,248.0,227.0
-7.3216,15.3368,24.953,254.0,254.0,255.0
-8.1981,14.1929,20.7784,109.0,152.0,127.0
-10.869900000000001,17.3848,14.8303,230.0,237.0,230.0
-11.035,13.9458,16.859099999999998,142.0,172.0,115.0
-11.2071,14.374400000000001,24.136,173.0,202.0,84.0
-11.2104,15.7916,23.7905,127.0,139.0,102.0
-7.5457,15.5982,22.8035,169.0,201.0,120.0
-6.766900000000001,16.8091,15.3169,164.0,177.0,145.0
-8.7716,13.359099999999998,16.1739,248.0,246.0,245.0
-13.6017,16.1101,24.386,249.0,253.0,254.0
-11.2038,15.434500000000002,22.919900000000002,188.0,197.0,133.0
-8.037700000000001,15.7684,25.1629,206.0,166.0,157.0
-9.639100000000001,11.4592,21.188499999999998,101.0,119.0,90.0
-2.9069000000000003,15.597800000000001,17.3405,254.0,254.0,254.0
-9.033199999999999,10.2513,19.9771,127.0,159.0,86.0
-10.1599,13.2277,16.2868,111.0,129.0,87.0
-8.724400000000001,14.505199999999999,20.287,102.0,150.0,88.0
-4.106,17.2092,17.2655,164.0,189.0,136.0
-9.2639,10.7615,21.8078,169.0,206.0,124.0
-10.3592,14.025000000000002,24.8689,195.0,178.0,134.0
-7.076499999999999,16.8168,10.120800000000001,165.0,140.0,137.0
-7.2599,17.0533,14.4791,166.0,111.0,78.0
-7.3509,15.546899999999999,24.9337,117.0,151.0,52.0
-11.5279,13.842099999999999,17.4502,159.0,182.0,132.0
-10.0489,13.6047,22.0409,131.0,173.0,135.0
-7.1787,16.5124,10.031600000000001,130.0,134.0,128.0
-4.9453,17.2991,16.8793,153.0,189.0,116.0
-10.5128,15.881,19.642599999999998,126.0,169.0,120.0
-9.127699999999999,10.569,19.3497,156.0,163.0,103.0
-4.261299999999999,14.3658,10.2982,106.0,150.0,76.0
-6.916600000000001,17.1998,9.4711,137.0,96.0,77.0
-6.760199999999999,17.8493,21.7985,251.0,251.0,248.0
-7.2478,14.4849,10.362300000000001,122.0,112.0,92.0
-10.8055,12.173399999999999,26.1233,181.0,179.0,120.0
-11.0069,14.191699999999999,24.401500000000002,176.0,197.0,97.0
-7.1037,16.707900000000002,16.837699999999998,255.0,255.0,255.0
-8.4859,14.1098,20.6938,104.0,152.0,93.0
-7.0352,17.1734,7.8284,122.0,76.0,63.0
0.3007,16.231499999999997,18.9052,190.0,207.0,180.0
-12.1282,10.1624,18.721799999999998,178.0,191.0,141.0
-6.8088,15.5773,13.2368,231.0,236.0,237.0
-10.8635,13.955400000000001,21.1601,116.0,160.0,122.0
-12.9947,15.712000000000002,23.729400000000002,255.0,255.0,255.0
-7.9017,18.698999999999998,21.8555,154.0,192.0,151.0
-9.0143,8.9197,20.165399999999998,189.0,173.0,91.0
-8.5598,14.087299999999999,15.255099999999999,197.0,180.0,185.0
-11.698,15.4362,23.4268,190.0,201.0,129.0
-8.086400000000001,17.2743,14.2724,161.0,186.0,95.0
-0.0036,16.0971,18.8725,179.0,197.0,157.0
-7.2285,20.1297,23.0702,157.0,188.0,142.0
-9.1135,9.4693,23.0493,245.0,249.0,250.0
-6.6629,17.265800000000002,6.277299999999999,121.0,84.0,68.0
-11.355500000000001,14.4645,18.9974,129.0,158.0,109.0
-6.6552,18.6934,22.3955,133.0,181.0,127.0
-7.7787999999999995,15.818999999999999,25.066,144.0,114.0,96.0
-10.551,11.1903,26.903700000000004,196.0,196.0,149.0
-11.712200000000001,15.369399999999999,19.9348,153.0,176.0,135.0
-1.5446,16.0452,18.5279,120.0,174.0,106.0
-7.2911,17.025100000000002,13.873099999999999,173.0,125.0,98.0
-10.9418,10.7005,18.715,154.0,175.0,125.0
-9.070400000000001,9.968200000000001,19.8415,188.0,152.0,65.0
-10.032499999999999,11.294,21.279400000000003,78.0,119.0,86.0
-9.9466,16.3238,18.9349,249.0,253.0,255.0
-11.2105,11.5272,26.3853,240.0,243.0,247.0
-11.6469,12.4924,21.9444,97.0,122.0,111.0
-11.329,8.6735,22.1328,204.0,194.0,162.0
-9.305,15.900900000000002,19.246199999999998,192.0,190.0,176.0
-7.2964,16.936899999999998,14.5372,164.0,121.0,97.0
-10.9489,15.066299999999998,16.6282,128.0,167.0,104.0
-9.2373,10.4745,21.8085,120.0,166.0,91.0
-6.660099999999999,20.2009,23.169,144.0,168.0,97.0
-10.763300000000001,15.1611,19.2743,144.0,169.0,103.0
-7.6119,16.5068,18.773400000000002,232.0,220.0,216.0
-11.6535,12.4687,25.4756,191.0,165.0,161.0
-3.6317000000000004,14.3066,9.9861,245.0,237.0,217.0
-8.5504,17.4786,14.4675,122.0,172.0,75.0
-6.718,14.5845,10.9056,97.0,151.0,76.0
0.09940000000000002,16.290499999999998,18.987399999999997,166.0,196.0,131.0
-9.791500000000001,12.8584,20.291500000000003,123.0,151.0,135.0
-11.965399999999999,14.901700000000002,17.6508,151.0,177.0,130.0
-9.298,11.2358,21.6496,73.0,112.0,61.0
-13.6321,8.9833,19.5895,142.0,173.0,104.0
-7.0232,19.0914,22.362399999999997,147.0,195.0,128.0
-6.9301,15.0378,25.6944,251.0,253.0,254.0
-8.3006,19.2544,22.2378,211.0,220.0,194.0
-8.7351,18.0125,21.1744,160.0,186.0,133.0
-9.9008,12.573300000000001,26.0131,241.0,242.0,247.0
-7.0936,18.9203,22.2314,151.0,190.0,129.0
-8.7227,16.4969,17.9817,238.0,236.0,238.0
-8.904,9.030199999999999,20.1687,228.0,216.0,182.0
-7.330299999999999,14.8113,10.4495,97.0,116.0,104.0
-7.1799,16.6988,14.376,251.0,255.0,255.0
-12.1704,15.612599999999999,23.8518,203.0,216.0,150.0
-10.3512,14.061000000000002,15.9886,253.0,255.0,255.0
-11.3133,8.5642,22.0189,216.0,199.0,165.0
-11.1005,11.3599,26.624100000000002,246.0,249.0,255.0
-9.0313,11.1193,18.862499999999997,133.0,165.0,108.0
-4.264600000000001,14.4234,10.4429,112.0,150.0,76.0
-7.6547,15.945300000000001,22.1582,134.0,190.0,67.0
-1.7097999999999998,16.5459,18.4223,145.0,184.0,112.0
-8.662799999999999,13.0507,16.4242,193.0,170.0,173.0
-5.6518,17.4011,16.622300000000003,235.0,246.0,246.0
-0.6566,15.9199,18.800800000000002,150.0,187.0,135.0
-10.405100000000001,13.2048,22.1436,100.0,147.0,94.0
-9.816600000000001,16.838800000000003,15.1411,142.0,180.0,129.0
-6.9457,15.3165,13.4131,187.0,201.0,155.0
-10.751900000000001,12.753700000000002,22.395200000000003,126.0,163.0,126.0
-9.2033,8.6283,20.1677,193.0,187.0,117.0
-12.998399999999998,16.3905,25.874999999999996,210.0,204.0,150.0
-8.0556,14.9842,13.9069,186.0,170.0,174.0
-10.1721,16.7267,15.2213,252.0,233.0,218.0
-11.8828,10.3065,18.7294,161.0,181.0,123.0
-12.0609,14.8148,19.492,147.0,173.0,136.0
-9.4359,16.222900000000003,19.8824,177.0,165.0,127.0
-10.0271,17.1012,14.8534,121.0,177.0,100.0
-7.620699999999999,15.1018,23.3439,164.0,197.0,127.0
-4.6024,14.2871,10.2401,102.0,145.0,64.0
-7.260999999999999,19.409499999999998,22.4405,158.0,197.0,161.0
-8.137,12.603700000000002,21.4018,242.0,242.0,254.0
-11.6334,14.746500000000001,17.3977,157.0,185.0,135.0
-12.5474,16.2478,25.477100000000004,211.0,205.0,151.0
-7.2766,17.0585,14.176,163.0,109.0,74.0
-11.3995,15.5951,23.5272,200.0,212.0,141.0
-5.113700000000001,17.2104,16.737,109.0,160.0,115.0
-9.4758,13.4884,19.9904,119.0,134.0,100.0
-7.2216000000000005,17.2605,12.4703,201.0,185.0,114.0
-3.5754,14.324600000000002,9.231499999999999,124.0,175.0,95.0
-10.3028,9.9792,20.4326,174.0,163.0,108.0
-10.0845,15.399,20.450699999999998,251.0,251.0,250.0
-8.6625,13.3999,20.7727,100.0,138.0,94.0
-5.0524,15.9802,16.3614,254.0,250.0,246.0
-5.7752,14.285800000000002,10.3834,103.0,141.0,69.0
-7.088800000000001,17.0332,8.3311,123.0,81.0,67.0
-7.7863,16.060299999999998,19.856299999999997,157.0,181.0,136.0
-10.0153,14.8794,20.8683,146.0,189.0,125.0
-6.6114999999999995,18.6482,22.4058,134.0,174.0,117.0
-9.8924,12.8614,20.2062,138.0,151.0,125.0
-12.2333,16.0443,17.2207,169.0,184.0,175.0
-2.7256,15.719800000000001,17.4039,177.0,186.0,152.0
-11.2384,8.769499999999999,21.3337,211.0,174.0,143.0
-7.065499999999999,15.168499999999998,11.1919,105.0,137.0,121.0
-10.1486,12.3255,26.1794,190.0,170.0,126.0
-7.469099999999999,15.988,25.2003,160.0,187.0,170.0
-6.328200000000001,18.6224,22.5325,253.0,254.0,249.0
-4.9186,14.264399999999998,10.4391,100.0,144.0,78.0
-10.2423,11.4428,21.0435,83.0,123.0,71.0
-12.2989,15.6416,23.933799999999998,198.0,207.0,136.0
-8.025,14.752,20.0496,253.0,254.0,254.0
-10.2404,13.993500000000001,21.3813,132.0,171.0,119.0
-10.0697,17.389599999999998,14.501700000000001,109.0,161.0,56.0
-11.052299999999999,12.253400000000001,22.613500000000002,112.0,160.0,123.0
-11.751000000000001,13.3718,24.6804,193.0,161.0,136.0
-11.0108,9.574,21.834899999999998,190.0,178.0,162.0
-10.4428,10.959000000000001,21.898999999999997,86.0,128.0,63.0
-7.209300000000001,15.614500000000001,25.041900000000002,112.0,146.0,59.0
-11.1159,15.481,19.8291,142.0,167.0,130.0
-7.6747,16.3874,21.6721,191.0,157.0,146.0
-6.5897,17.1225,6.1016,104.0,66.0,54.0
-6.1749,19.7184,23.3265,253.0,254.0,254.0
-10.408199999999999,10.871,27.0407,206.0,190.0,149.0
-7.3103,16.5894,17.4349,205.0,190.0,184.0
-7.8950000000000005,15.309600000000001,20.1984,224.0,227.0,220.0
-7.1349,17.0429,15.4249,168.0,121.0,103.0
-8.846,9.2846,20.1126,254.0,254.0,255.0
-8.9532,12.0074,17.3646,183.0,153.0,152.0
-10.1597,17.5774,14.3244,188.0,171.0,161.0
-4.7737,13.414000000000001,9.2752,127.0,152.0,156.0
-6.619800000000001,14.5033,10.6893,116.0,167.0,98.0
-7.8502,16.0982,22.3021,168.0,172.0,128.0
-7.051100000000001,17.1016,7.473599999999999,114.0,83.0,72.0
-11.451699999999999,13.7182,24.5725,181.0,189.0,104.0
-10.4281,14.5336,24.4583,254.0,254.0,254.0
-9.434099999999999,12.3031,20.643800000000002,85.0,126.0,83.0
-10.1112,13.472999999999999,22.115399999999998,137.0,171.0,125.0
-5.562,17.2875,16.585900000000002,125.0,168.0,135.0
-7.795599999999999,16.3182,21.9663,161.0,105.0,78.0
-7.081600000000001,14.655299999999999,10.6472,147.0,165.0,146.0
-7.0635,17.069100000000002,14.574000000000002,168.0,112.0,90.0
-10.9353,17.052899999999998,14.8923,124.0,167.0,114.0
-10.0564,11.5906,26.800400000000003,228.0,213.0,208.0
-12.3247,14.8184,19.5211,145.0,167.0,124.0
-12.2628,16.1553,17.3173,152.0,159.0,134.0
-10.1484,14.606,20.9999,117.0,165.0,99.0
-9.9847,10.9188,21.9044,86.0,120.0,80.0
-12.164,10.5043,19.0629,176.0,194.0,136.0
-7.5073,16.8627,16.4339,253.0,253.0,251.0
-13.054499999999999,16.3885,25.7805,210.0,205.0,149.0
-6.6827,17.2476,6.6312999999999995,143.0,102.0,80.0
-9.2285,12.551200000000001,20.5855,112.0,150.0,118.0
-13.829600000000001,9.2206,19.7429,155.0,182.0,130.0
-13.8644,9.3551,19.8457,176.0,195.0,135.0
-11.241900000000001,11.5289,26.3822,247.0,250.0,255.0
-9.772699999999999,16.917299999999997,15.066299999999998,131.0,176.0,127.0
-10.6202,15.2114,19.331799999999998,141.0,172.0,123.0
-9.0832,11.5236,20.0487,161.0,204.0,135.0
-10.9971,12.745999999999999,25.549699999999998,179.0,185.0,121.0
-10.3142,9.985,20.4641,176.0,167.0,117.0
-8.8585,16.415,20.2912,151.0,177.0,112.0
-6.1079,17.1823,16.0894,142.0,183.0,145.0
-9.3234,11.3126,18.043400000000002,141.0,138.0,118.0
-11.8025,14.272599999999999,18.9942,137.0,166.0,115.0
-11.9977,15.398800000000001,23.4212,196.0,198.0,136.0
-10.3756,13.592799999999999,16.3035,139.0,175.0,126.0
-8.9713,17.6075,14.5066,119.0,171.0,76.0
-7.3216,16.0627,10.439,148.0,184.0,131.0
-9.901200000000001,12.0144,26.5272,251.0,253.0,254.0
-8.1926,18.8772,21.9625,150.0,188.0,152.0
-13.6459,9.3408,19.572,157.0,181.0,129.0
-3.4014,14.4451,9.4176,126.0,154.0,114.0
-8.0817,19.1136,22.1241,153.0,184.0,143.0
-9.085899999999999,10.3599,18.8766,254.0,254.0,254.0
-7.2044999999999995,17.813000000000002,21.5781,122.0,168.0,112.0
-13.533500000000002,9.086,19.3439,238.0,245.0,255.0
-9.2983,11.8681,21.012900000000002,115.0,148.0,122.0
-12.1386,15.903,17.008499999999998,236.0,240.0,238.0
-11.9883,15.6641,23.938000000000002,203.0,211.0,143.0
-7.7681000000000004,17.543400000000002,21.01,127.0,166.0,109.0
-2.0134,16.101599999999998,18.2509,123.0,167.0,129.0
-13.6606,9.6131,19.6543,178.0,198.0,138.0
-10.3092,12.920300000000001,22.5463,244.0,250.0,255.0
-7.7381,16.0112,22.756,215.0,224.0,208.0
-10.4761,10.7268,18.5965,170.0,192.0,155.0
-11.038499999999999,12.1839,22.6828,112.0,149.0,100.0
-7.2121,16.750999999999998,17.0771,120.0,72.0,61.0
-7.6837,15.911900000000001,19.8661,184.0,201.0,174.0
-11.2791,10.723,18.7788,181.0,198.0,155.0
-9.1553,8.7668,20.1416,185.0,178.0,94.0
-13.142100000000001,9.331100000000001,19.0386,159.0,178.0,124.0
-7.839300000000001,16.0444,23.5745,187.0,135.0,118.0
-9.6981,10.3143,19.5854,154.0,162.0,97.0
-10.9087,12.327399999999999,25.9469,181.0,181.0,113.0
-9.339500000000001,11.8612,20.983999999999998,108.0,135.0,99.0
-2.444,16.7468,18.078,130.0,169.0,125.0
-7.0055000000000005,20.2494,23.4069,233.0,246.0,239.0
-10.3073,14.514199999999999,21.0042,112.0,163.0,116.0
-6.7413,17.2027,7.763299999999999,118.0,69.0,53.0
-11.1696,12.0115,22.6604,93.0,135.0,78.0
-7.0355,17.0328,14.930399999999999,168.0,124.0,116.0
-10.9534,9.3203,21.0746,190.0,172.0,121.0
-7.3687000000000005,16.7055,18.8247,227.0,220.0,222.0
-7.3103,16.3052,10.8306,254.0,254.0,252.0
-5.4174,14.1607,9.952900000000001,92.0,119.0,63.0
-9.4994,11.200000000000001,18.0511,251.0,252.0,252.0
-8.9893,10.2153,20.793400000000002,114.0,162.0,99.0
-7.0931,19.7685,22.7387,152.0,188.0,144.0
-7.3076,17.0566,15.626100000000001,200.0,159.0,136.0
-12.1591,15.5418,23.7231,194.0,201.0,129.0
-6.8623,17.2913,6.0188,161.0,135.0,99.0
-11.287700000000001,11.5422,26.317,234.0,241.0,255.0
-11.648,15.8751,24.2783,210.0,213.0,154.0
-6.7409,20.256,23.394000000000002,145.0,167.0,96.0
-14.0486,16.6049,25.694499999999998,208.0,205.0,151.0
-10.103900000000001,13.1871,25.497500000000002,197.0,182.0,130.0
-9.4155,16.2893,18.7474,254.0,255.0,254.0
-10.007000000000001,13.009100000000002,25.666800000000002,199.0,175.0,141.0
-7.3364,17.1857,13.6857,254.0,243.0,234.0
-8.340200000000001,17.0336,14.6329,125.0,177.0,81.0
-9.9194,13.150800000000002,16.1092,134.0,164.0,108.0
-10.1267,10.588799999999999,18.3716,175.0,192.0,160.0
-9.1148,11.734,21.324299999999997,115.0,154.0,112.0
-6.4623,19.8029,23.1049,140.0,188.0,109.0
-8.255899999999999,18.153,21.3921,155.0,185.0,145.0
-12.0701,14.9563,17.708,157.0,182.0,127.0
-10.257900000000001,13.3358,25.3398,191.0,181.0,127.0
-12.3113,10.8574,19.4637,155.0,175.0,112.0
