-8.8378,15.2559,4.7023,31.0,25.0,29.0
-9.368400000000001,13.768600000000001,9.6943,136.0,177.0,147.0
-10.3818,14.1397,10.732999999999999,110.0,164.0,83.0
-9.0254,15.7429,13.767399999999999,153.0,180.0,145.0
-12.962000000000002,14.707999999999998,15.701,149.0,186.0,123.0
-9.4914,15.201600000000001,15.4875,250.0,250.0,250.0
-9.6457,15.257100000000001,13.3509,173.0,136.0,116.0
-10.0008,16.436500000000002,9.078700000000001,66.0,114.0,65.0
-8.4759,12.723899999999999,9.0655,112.0,163.0,120.0
-8.9901,14.6044,15.534,185.0,202.0,151.0
-10.137500000000001,16.749,8.789900000000001,74.0,134.0,70.0
-7.2668,17.2481,12.836400000000001,128.0,154.0,112.0
-9.6738,15.2973,15.243200000000002,229.0,224.0,225.0
-12.9694,14.762900000000002,15.725700000000002,146.0,187.0,131.0
-9.3838,15.2643,15.027399999999998,255.0,242.0,231.0
-12.3776,15.7635,16.3354,176.0,187.0,145.0
-8.710700000000001,12.9054,9.1764,105.0,159.0,107.0
-12.4621,14.8153,15.5997,139.0,184.0,132.0
-9.246500000000001,15.054300000000001,16.0722,255.0,255.0,255.0
-9.3778,13.4153,9.5983,121.0,168.0,130.0
-9.806,14.801800000000002,13.172400000000001,139.0,155.0,103.0
-9.0345,10.641200000000001,8.3011,151.0,143.0,140.0
-9.601899999999999,15.306700000000001,12.697600000000001,201.0,165.0,152.0
-9.2409,15.756700000000002,12.0032,175.0,194.0,182.0
-10.3327,14.3029,11.018799999999999,117.0,170.0,93.0
-8.719100000000001,10.513200000000001,8.1026,148.0,178.0,120.0
-8.071200000000001,17.041600000000003,13.7295,118.0,173.0,111.0
-6.9864,14.3788,14.0874,172.0,214.0,140.0
-8.2492,15.396099999999999,15.445800000000002,197.0,217.0,225.0
-7.3993,17.549699999999998,13.551499999999999,129.0,170.0,114.0
-11.4062,15.3416,15.927,168.0,200.0,150.0
-6.3286999999999995,14.4666,13.6763,176.0,219.0,159.0
-8.931799999999999,14.632700000000002,15.28,227.0,221.0,190.0
-7.8891,17.296400000000002,13.7765,149.0,179.0,146.0
-12.7605,15.3283,15.617700000000001,201.0,218.0,232.0
-8.2083,17.0658,13.800200000000002,183.0,199.0,176.0
-8.0838,14.431099999999999,14.7448,173.0,210.0,146.0
-7.4877,14.2641,15.390999999999998,151.0,189.0,104.0
-13.120299999999999,15.22,15.7094,132.0,194.0,119.0
-10.1228,13.8509,11.023299999999999,147.0,173.0,141.0
-13.5177,15.8194,15.8175,212.0,204.0,174.0
-10.3383,14.451600000000001,10.925799999999999,129.0,177.0,104.0
-11.8851,14.535200000000001,15.456700000000001,253.0,254.0,253.0
-8.630799999999999,16.083,13.2169,128.0,143.0,112.0
-9.9464,14.874699999999999,12.6897,121.0,162.0,92.0
-7.2424,14.3646,14.2288,178.0,218.0,145.0
-9.4217,14.3094,9.8484,107.0,150.0,102.0
-13.6242,15.523200000000001,15.7615,130.0,179.0,113.0
-8.691799999999999,15.3217,4.8414,57.0,46.0,48.0
-8.951,15.9396,12.6045,121.0,154.0,82.0
-11.6685,15.726299999999998,16.4149,169.0,185.0,143.0
-6.293500000000001,17.7375,12.5728,117.0,167.0,108.0
-6.9827,16.8849,12.324200000000001,136.0,175.0,120.0
-6.0821,18.2782,12.7836,122.0,174.0,102.0
-8.9661,15.2806,7.3025,89.0,68.0,62.0
-8.982700000000001,12.212299999999999,8.9909,111.0,163.0,107.0
-9.5633,15.8623,10.398100000000001,130.0,154.0,95.0
-8.5696,15.382399999999999,4.9965,54.0,42.0,45.0
-9.0625,15.363399999999999,6.0252,31.0,31.0,39.0
-9.0864,11.122,8.6982,134.0,167.0,138.0
-9.0267,13.8179,9.6646,122.0,168.0,126.0
-6.189900000000001,18.093899999999998,12.7638,135.0,180.0,128.0
-8.5792,16.6877,13.8763,231.0,233.0,221.0
-8.6217,16.051000000000002,13.0889,255.0,252.0,249.0
-7.8387,14.419199999999998,14.5419,171.0,215.0,144.0
-7.487399999999999,17.5417,13.7193,140.0,176.0,119.0
-8.9906,14.077700000000002,9.6847,139.0,163.0,148.0
-8.2278,14.4345,14.986099999999999,168.0,210.0,139.0
-13.578399999999998,14.718899999999998,15.7393,150.0,192.0,137.0
-9.632,15.2997,14.5508,181.0,139.0,137.0
-9.963,15.2649,16.133,190.0,199.0,192.0
-6.4027,17.392599999999998,12.4267,121.0,170.0,114.0
-9.6009,15.290400000000002,15.4973,191.0,160.0,150.0
-13.720699999999999,14.5149,15.6798,255.0,255.0,255.0
-9.8674,14.854000000000001,13.3903,190.0,185.0,144.0
-6.7499,18.0502,13.1029,128.0,176.0,108.0
-7.735499999999999,14.4406,14.3387,170.0,214.0,148.0
-14.3536,15.6582,16.0751,255.0,254.0,255.0
-8.888,11.5555,8.6951,129.0,170.0,118.0
-8.432599999999999,12.2915,8.8809,114.0,161.0,112.0
-7.047499999999999,14.2205,15.1251,245.0,248.0,248.0
-6.6334,14.4481,13.794300000000002,182.0,221.0,156.0
-8.8798,14.061100000000001,9.616299999999999,111.0,160.0,123.0
-9.8553,15.254599999999998,16.038,254.0,254.0,254.0
-10.452300000000001,14.8511,11.2593,93.0,135.0,66.0
-10.394200000000001,14.408199999999999,10.6437,113.0,156.0,87.0
-14.4847,15.379599999999998,16.114700000000003,141.0,184.0,112.0
-10.1031,16.597,9.0142,78.0,128.0,66.0
-7.9378,17.1522,13.720099999999999,136.0,177.0,127.0
-9.2873,15.3447,10.0976,75.0,75.0,81.0
-9.6113,15.3304,12.764700000000001,246.0,225.0,208.0
-8.6678,13.1462,9.2705,106.0,161.0,114.0
-9.5394,15.3143,12.3072,226.0,207.0,196.0
-9.2913,15.2504,10.4383,134.0,87.0,78.0
-9.557599999999999,15.482499999999998,11.626100000000001,255.0,252.0,249.0
-8.343499999999999,15.3354,15.526200000000001,158.0,198.0,156.0
-7.8041,15.5753,15.709999999999999,156.0,186.0,117.0
-7.968999999999999,14.8174,14.0681,229.0,219.0,205.0
-13.772300000000001,14.8124,15.818399999999999,158.0,196.0,148.0
-9.9599,15.188199999999998,16.1448,239.0,238.0,231.0
-11.184800000000001,15.588,16.3624,145.0,185.0,114.0
-9.8497,16.6277,8.6756,81.0,121.0,107.0
-7.8169,15.573999999999998,15.875,226.0,234.0,218.0
-6.8363,17.7995,13.0131,130.0,158.0,111.0
-10.6238,14.501900000000001,9.7654,102.0,155.0,96.0
-7.9954,16.4572,12.8027,127.0,166.0,100.0
-8.7807,15.3975,6.7887,153.0,114.0,94.0
-8.3345,11.277800000000001,8.384,123.0,162.0,118.0
-7.156999999999999,14.194899999999999,15.268399999999998,253.0,254.0,254.0
-10.0548,14.8154,12.492799999999999,129.0,141.0,90.0
-7.1945,14.180100000000001,15.313199999999998,254.0,253.0,255.0
-8.8378,15.2686,6.7926,127.0,82.0,66.0
-8.591999999999999,16.1005,13.4071,129.0,165.0,99.0
-9.6827,15.3034,14.5976,217.0,190.0,183.0
-13.216800000000001,14.716399999999998,15.7295,140.0,185.0,123.0
-7.04,17.9516,13.3086,129.0,174.0,128.0
-13.4465,14.7542,15.7529,159.0,195.0,156.0
-8.482199999999999,10.235,7.713399999999999,254.0,253.0,249.0
-8.722299999999999,14.710799999999999,14.669599999999999,254.0,255.0,255.0
-6.7093,17.9239,13.0045,122.0,155.0,105.0
-5.8808,14.5589,13.3494,176.0,216.0,135.0
-7.7416,14.368300000000001,14.690800000000001,183.0,218.0,147.0
-12.966,15.7052,15.987000000000002,100.0,163.0,51.0
-10.1654,13.792499999999999,10.9739,251.0,249.0,243.0
-8.681999999999999,16.116,12.517900000000001,243.0,254.0,254.0
-9.651,15.215600000000002,12.895400000000002,129.0,106.0,94.0
-9.6751,15.2947,13.291900000000002,183.0,145.0,123.0
-6.9392,14.3686,14.0898,174.0,218.0,149.0
-13.139999999999999,15.766399999999999,15.9199,106.0,171.0,79.0
-10.4357,14.352200000000002,10.527899999999999,83.0,128.0,61.0
-8.081299999999999,11.556700000000001,8.402,77.0,85.0,65.0
-7.700899999999999,14.669199999999998,13.8881,174.0,210.0,155.0
-9.6465,15.7851,10.2596,109.0,140.0,62.0
-11.8769,15.0821,15.617,137.0,187.0,107.0
-12.3165,15.58,16.0834,124.0,175.0,75.0
-9.397400000000001,15.4334,10.513200000000001,63.0,71.0,89.0
-8.6223,16.1346,12.837499999999999,115.0,133.0,83.0
-10.195,16.5151,9.2562,31.0,45.0,55.0
-13.690199999999999,15.7414,15.6081,255.0,255.0,255.0
-10.2224,15.0814,12.7093,254.0,254.0,254.0
-8.423,11.114799999999999,8.312700000000001,139.0,178.0,130.0
-9.5595,15.285499999999999,12.3131,190.0,151.0,128.0
-9.4864,15.4098,12.2284,255.0,255.0,255.0
-6.959,16.8109,12.251900000000001,141.0,167.0,129.0
-7.7429,14.5863,14.0894,166.0,174.0,140.0
-7.5267,15.0163,13.541900000000002,254.0,251.0,247.0
-9.158900000000001,15.6579,12.4406,117.0,140.0,73.0
-9.796100000000001,14.512,13.076099999999999,156.0,164.0,124.0
-7.1859,17.7518,13.408700000000001,136.0,145.0,121.0
-8.7031,12.690999999999999,9.079600000000001,103.0,160.0,111.0
-8.8505,15.2972,5.745299999999999,135.0,107.0,91.0
-8.0546,16.509,12.901399999999999,124.0,166.0,108.0
-9.1108,14.091000000000001,9.7761,102.0,155.0,100.0
-8.8845,15.2914,4.669700000000001,30.0,21.0,22.0
-9.4678,16.073,10.0711,115.0,148.0,94.0
-9.908,15.8343,9.821299999999999,85.0,111.0,94.0
-8.825199999999999,15.2676,15.3504,164.0,194.0,148.0
-7.0483,14.3118,14.317499999999999,181.0,223.0,165.0
-9.4718,16.634,8.659500000000001,82.0,121.0,62.0
-6.7915,17.299400000000002,12.5263,134.0,177.0,129.0
-9.3012,16.009,10.265,120.0,152.0,103.0
-12.4687,14.480199999999998,15.535499999999999,229.0,235.0,233.0
-8.2049,16.5046,13.2069,123.0,144.0,98.0
-10.497,14.3195,10.3466,80.0,131.0,65.0
-8.0258,16.7265,13.403599999999999,147.0,181.0,122.0
-12.4154,15.476,15.8731,112.0,169.0,74.0
-8.2966,14.4755,15.440100000000001,166.0,207.0,135.0
-9.4138,15.4228,11.617099999999999,39.0,46.0,55.0
-8.055900000000001,16.7133,13.4524,137.0,179.0,117.0
-6.623600000000001,17.934,12.926699999999999,148.0,163.0,140.0
-9.1579,15.251999999999999,15.1975,161.0,172.0,121.0
-9.6284,16.2443,9.3372,95.0,128.0,57.0
-6.9756,14.4535,13.9057,191.0,226.0,154.0
-11.875399999999999,15.662400000000002,16.3291,134.0,178.0,96.0
-12.542300000000001,15.398,15.551400000000001,253.0,255.0,252.0
-13.727500000000001,15.4839,15.803600000000001,133.0,171.0,123.0
-12.7315,14.9778,15.668299999999999,126.0,182.0,112.0
-9.3047,15.2636,10.543700000000001,139.0,98.0,93.0
-10.7182,15.623500000000002,16.328300000000002,203.0,210.0,181.0
-9.3219,14.6672,9.9707,160.0,174.0,122.0
-8.8849,14.729000000000001,15.027099999999999,254.0,255.0,255.0
-10.5403,14.5253,9.6013,69.0,89.0,77.0
-8.4218,11.647,8.568000000000001,112.0,160.0,115.0
-10.4681,14.7843,11.0902,103.0,147.0,89.0
-8.0369,14.3874,15.081800000000001,167.0,209.0,140.0
-11.0739,15.570500000000001,16.325400000000002,134.0,182.0,98.0
-10.2614,15.2042,12.0695,167.0,178.0,139.0
-9.2389,12.1106,9.195,110.0,162.0,94.0
-12.314,14.665500000000002,15.573500000000001,144.0,187.0,130.0
-6.8369,17.644299999999998,12.8133,134.0,163.0,117.0
-8.8928,15.139800000000001,4.703,109.0,87.0,85.0
-7.342700000000001,17.9088,13.675300000000002,57.0,62.0,41.0
-9.2957,16.146,9.9316,99.0,134.0,81.0
-7.7776,16.737099999999998,12.8259,112.0,159.0,101.0
-7.2367,14.7873,13.535400000000001,177.0,218.0,162.0
-9.1106,15.310199999999998,9.153500000000001,159.0,106.0,84.0
-8.5038,14.713000000000001,16.0002,133.0,193.0,115.0
-9.3413,15.179100000000002,16.1467,255.0,254.0,253.0
-7.2181,14.455200000000001,14.0009,181.0,222.0,168.0
-8.6112,15.455,15.387799999999999,144.0,168.0,87.0
-6.4153,14.950099999999999,12.961500000000001,191.0,227.0,186.0
-8.8014,15.343399999999999,15.2884,150.0,197.0,134.0
-6.0438,17.6556,12.462,125.0,175.0,116.0
-12.7914,15.592400000000001,15.911800000000001,103.0,163.0,57.0
-8.7262,11.968399999999999,8.7638,129.0,171.0,127.0
-12.3665,14.4351,15.53,254.0,254.0,254.0
-5.936,14.7473,12.8976,177.0,218.0,153.0
-9.7263,16.104,9.5388,100.0,128.0,79.0
-9.0271,15.764700000000001,12.7435,37.0,35.0,36.0
-9.4134,11.9637,9.293800000000001,45.0,40.0,34.0
-10.571800000000001,14.7089,10.6747,97.0,145.0,80.0
-8.5661,13.6132,9.397,109.0,154.0,112.0
-11.416,15.4694,16.1827,140.0,182.0,103.0
-11.318100000000001,15.062800000000001,15.7368,145.0,184.0,103.0
-9.6239,15.2475,14.090900000000001,230.0,222.0,221.0
-13.1021,15.0953,15.755099999999999,103.0,168.0,70.0
-9.6485,15.2723,13.1659,162.0,125.0,113.0
-8.5691,10.3266,7.847999999999999,168.0,184.0,143.0
-9.6744,15.4072,14.0117,222.0,199.0,187.0
-5.7935,14.485999999999999,13.576099999999999,253.0,254.0,251.0
-7.8271999999999995,14.599,14.1517,155.0,169.0,133.0
-7.7877,14.4028,14.5905,172.0,213.0,145.0
-7.659599999999999,17.262900000000002,13.553399999999998,126.0,174.0,108.0
-10.199300000000001,16.933899999999998,8.6175,74.0,131.0,69.0
-5.2038,18.160999999999998,12.4865,142.0,183.0,111.0
-7.4116,17.5149,13.5048,136.0,178.0,122.0
-11.0374,14.8385,15.4617,253.0,254.0,254.0
-9.2062,15.606800000000002,13.9624,178.0,195.0,140.0
-5.850099999999999,14.766000000000002,12.8325,181.0,225.0,164.0
-6.3242,14.8927,12.9503,180.0,220.0,165.0
-5.7614,14.583599999999999,13.1822,144.0,154.0,111.0
-8.5472,16.1005,13.0615,151.0,147.0,114.0
-7.4005,17.308799999999998,13.000900000000001,120.0,135.0,104.0
-8.883000000000001,15.2957,5.599,123.0,93.0,82.0
-10.4043,14.398800000000001,10.621,101.0,142.0,74.0
-7.2292,14.252699999999999,14.843899999999998,170.0,207.0,126.0
-7.1619,17.5163,13.046299999999999,124.0,166.0,110.0
-9.3264,15.3055,10.6017,158.0,137.0,130.0
-9.8202,14.8093,13.2258,138.0,136.0,96.0
-7.345599999999999,14.2641,15.021300000000002,173.0,214.0,147.0
-8.984,15.4527,6.5376,105.0,84.0,75.0
-12.3734,15.640899999999998,16.206899999999997,124.0,168.0,71.0
-8.63,14.821500000000002,16.0258,137.0,197.0,126.0
-10.2736,15.129000000000001,16.081599999999998,153.0,185.0,110.0
-7.881399999999999,16.9014,13.4077,128.0,172.0,103.0
-9.2528,15.5838,10.4219,117.0,137.0,92.0
-10.4449,15.0644,11.2791,94.0,145.0,66.0
-8.8061,15.1388,4.993,75.0,62.0,62.0
-8.4091,11.249099999999999,8.3815,126.0,172.0,131.0
-5.844,18.1489,12.609300000000001,130.0,174.0,110.0
-6.9819,17.7399,13.1275,125.0,170.0,107.0
-9.5318,15.2219,11.5102,198.0,180.0,172.0
-8.542900000000001,16.0896,13.0891,108.0,102.0,53.0
-10.4686,14.5958,10.709299999999999,108.0,159.0,95.0
-9.0944,15.958400000000001,12.2474,124.0,145.0,119.0
-8.9903,15.2819,6.613099999999999,130.0,81.0,59.0
-8.2013,16.3938,12.803400000000002,131.0,162.0,89.0
-10.124600000000001,15.125399999999999,16.0766,163.0,182.0,134.0
-9.3398,11.8146,9.2915,95.0,111.0,98.0
-9.3209,15.1737,16.2985,226.0,217.0,200.0
-6.6277,17.983,12.973,129.0,160.0,112.0
-8.3749,16.331300000000002,13.5083,130.0,184.0,105.0
-7.9555,14.559700000000001,15.781600000000001,203.0,217.0,193.0
-9.3078,14.1122,9.8284,114.0,159.0,114.0
-7.13,14.399799999999999,14.091000000000001,185.0,220.0,150.0
-8.7728,16.4819,13.9304,235.0,240.0,233.0
-7.083,17.8452,13.3184,133.0,173.0,123.0
-8.529200000000001,15.3565,5.047,55.0,44.0,47.0
-9.0486,15.346000000000002,8.491200000000001,104.0,90.0,94.0
-6.4859,18.3933,13.1211,130.0,175.0,119.0
-8.947199999999999,12.4739,9.0364,136.0,166.0,146.0
-13.727800000000002,15.7692,15.6945,178.0,192.0,169.0
-13.6219,14.480799999999999,15.692,254.0,255.0,255.0
-9.332600000000001,15.677299999999999,10.493500000000001,160.0,184.0,153.0
-13.1774,15.0717,15.753300000000001,105.0,174.0,86.0
-9.5245,12.356399999999999,9.3575,118.0,159.0,154.0
-8.9335,15.4723,6.5469,116.0,90.0,77.0
-8.8674,15.862200000000001,13.456399999999999,141.0,165.0,123.0
-10.1352,13.941600000000001,11.5165,151.0,195.0,135.0
-5.1984,17.8448,12.4467,112.0,117.0,94.0
-9.6265,15.3384,15.1539,213.0,163.0,136.0
-10.1778,15.1067,12.526399999999999,150.0,166.0,127.0
-8.9985,15.227099999999998,7.6875,117.0,118.0,124.0
-9.263,15.428,12.1926,134.0,156.0,104.0
-5.7512,14.8143,12.718499999999999,192.0,222.0,155.0
-10.482,15.017800000000001,15.931400000000002,241.0,241.0,224.0
-6.8443000000000005,14.6677,13.5179,175.0,217.0,145.0
-8.8839,15.5973,7.2062,91.0,67.0,65.0
-8.6701,10.492899999999999,8.0618,149.0,176.0,125.0
-7.7928,14.4312,15.479399999999998,157.0,206.0,144.0
-9.7489,15.7716,10.0155,123.0,152.0,101.0
-5.3113,17.9038,12.4691,132.0,175.0,141.0
-6.6955,17.9988,13.050500000000001,127.0,169.0,102.0
-9.7193,15.0683,13.450000000000001,254.0,253.0,248.0
-10.4145,14.036999999999999,10.3636,99.0,154.0,77.0
-9.6137,16.3351,9.214500000000001,85.0,122.0,57.0
-9.8842,16.0798,9.515500000000001,75.0,120.0,61.0
-9.2834,14.8687,4.8097,116.0,89.0,75.0
-4.7953,18.343400000000003,12.3071,128.0,158.0,99.0
-5.5539,18.256,12.6364,133.0,171.0,106.0
-9.381499999999999,16.3508,9.579799999999999,106.0,143.0,92.0
-9.9228,15.187500000000002,16.156200000000002,82.0,68.0,49.0
-8.0259,12.1134,8.813600000000001,78.0,101.0,98.0
-8.258799999999999,16.7094,13.7019,144.0,186.0,152.0
-5.691199999999999,14.829600000000001,12.687399999999998,179.0,218.0,153.0
-10.450800000000001,15.1478,11.2071,96.0,141.0,68.0
-9.275400000000001,14.8607,9.9077,85.0,98.0,70.0
-7.3667,17.668,13.684,136.0,171.0,120.0
-10.4651,14.5014,10.5765,85.0,128.0,69.0
-8.8757,11.2149,8.5472,123.0,167.0,107.0
-6.984999999999999,14.7422,13.492999999999999,178.0,214.0,156.0
-8.6379,14.596400000000001,14.8398,165.0,194.0,130.0
-9.6233,15.293399999999998,14.0427,173.0,147.0,149.0
-11.926,15.5676,16.1791,124.0,179.0,81.0
-11.4695,14.980599999999999,15.5322,247.0,250.0,250.0
-6.6363,14.3482,14.0882,178.0,219.0,159.0
-13.4716,15.335899999999999,15.8007,130.0,175.0,107.0
-7.2489,16.7942,12.5053,143.0,173.0,144.0
-8.132100000000001,14.4148,15.035100000000002,163.0,203.0,131.0
-8.6992,10.2837,7.9207,255.0,255.0,255.0
-11.4624,14.7167,15.4624,182.0,204.0,189.0
-9.6451,15.2046,13.6487,249.0,249.0,250.0
-8.5682,12.4541,8.969199999999999,115.0,163.0,118.0
-13.5113,15.3733,15.7973,136.0,178.0,124.0
-7.344100000000001,14.2599,14.9858,171.0,212.0,145.0
-9.4206,15.246,14.9399,254.0,234.0,214.0
-10.2669,14.5016,11.4192,146.0,193.0,122.0
-8.7912,15.5112,7.298699999999999,161.0,134.0,123.0
-9.432599999999999,15.2177,11.0384,182.0,134.0,109.0
-9.060699999999999,15.287899999999999,7.9531,86.0,57.0,51.0
-9.703000000000001,15.1722,12.973399999999998,231.0,228.0,227.0
-6.6123,17.8567,12.8444,135.0,165.0,117.0
-10.269599999999999,13.996500000000001,10.9712,88.0,122.0,67.0
-7.8611,15.5312,15.609100000000002,158.0,187.0,140.0
-7.1838,17.8514,13.461200000000002,141.0,169.0,126.0
-9.3759,16.0686,9.950299999999999,82.0,119.0,69.0
-8.2026,16.4595,12.9604,117.0,164.0,87.0
-9.5612,15.279799999999998,12.3471,187.0,150.0,127.0
-7.2134,16.8079,12.4908,145.0,177.0,118.0
-10.3283,14.4489,10.973099999999999,124.0,174.0,100.0
-9.6545,15.215,12.850900000000001,140.0,116.0,106.0
-7.794,17.0957,13.561200000000001,135.0,176.0,121.0
-9.4079,15.4663,11.748899999999999,223.0,223.0,219.0
-9.585,15.407100000000002,13.8676,239.0,242.0,243.0
-8.0002,17.052500000000002,13.6943,131.0,173.0,117.0
-9.0325,12.504299999999999,9.0966,110.0,154.0,124.0
-10.001,16.3945,9.1685,70.0,125.0,63.0
-9.6028,15.360999999999999,12.928899999999999,255.0,253.0,250.0
-7.083100000000001,14.882600000000002,13.397899999999998,181.0,214.0,173.0
-8.4978,16.3507,13.7534,156.0,190.0,142.0
-11.4259,15.549199999999999,16.2422,120.0,178.0,79.0
-5.9847,14.4296,13.696800000000001,178.0,216.0,144.0
-9.318200000000001,15.210099999999999,10.494100000000001,148.0,111.0,102.0
-10.0412,17.1441,7.9369,59.0,73.0,51.0
-8.7724,12.3165,8.924700000000001,123.0,165.0,116.0
-13.583,15.274099999999999,15.8654,125.0,173.0,109.0
-14.3238,15.568100000000001,16.0823,218.0,215.0,193.0
-9.1217,14.9302,16.291,198.0,219.0,170.0
-11.9679,15.3336,15.8725,115.0,173.0,77.0
-4.8071,18.3609,12.4126,166.0,179.0,141.0
-12.6656,15.384999999999998,15.6142,253.0,251.0,246.0
-9.593599999999999,16.5935,8.7396,83.0,136.0,83.0
-8.8264,15.778400000000001,12.753300000000001,165.0,155.0,125.0
-8.3248,12.4043,8.9229,113.0,162.0,120.0
-6.1305,18.2856,12.8235,114.0,167.0,104.0
-9.6668,15.2428,14.032900000000001,204.0,178.0,188.0
-8.9379,15.8362,13.755600000000001,147.0,184.0,110.0
-10.3106,14.0588,10.924100000000001,104.0,157.0,88.0
-9.3229,12.772400000000001,9.350200000000001,126.0,176.0,150.0
-10.693800000000001,15.606900000000001,16.3124,181.0,199.0,169.0
-9.2792,15.1052,9.9035,125.0,127.0,120.0
-9.2034,11.8671,9.117899999999999,117.0,165.0,102.0
-8.9902,15.267700000000001,7.7959,99.0,72.0,69.0
-6.4528,17.297,12.4015,109.0,162.0,98.0
-9.5549,16.6482,8.626100000000001,88.0,133.0,72.0
-10.4281,14.740900000000002,11.1411,103.0,152.0,82.0
-6.0862,14.5982,13.248199999999999,182.0,221.0,147.0
-9.5802,16.3379,9.1783,76.0,110.0,52.0
-9.310599999999999,15.639,10.478,165.0,195.0,157.0
-10.5152,15.0703,15.9858,161.0,194.0,132.0
-11.3169,14.915999999999999,15.5791,145.0,190.0,133.0
-9.6918,15.3394,14.5046,225.0,204.0,200.0
-5.9086,15.0093,12.612200000000001,179.0,184.0,171.0
-9.2747,16.0256,10.169599999999999,90.0,129.0,68.0
-9.217400000000001,15.6167,12.353,119.0,146.0,78.0
-8.1943,17.119999999999997,13.8411,247.0,251.0,255.0
-10.6836,14.597,9.8153,113.0,159.0,107.0
-7.7892,14.3375,14.9846,165.0,207.0,145.0
-10.1585,14.5025,12.0625,117.0,167.0,95.0
-14.062199999999999,14.8199,15.8415,154.0,191.0,150.0
-6.6467,14.480299999999998,13.7355,182.0,222.0,160.0
-11.314499999999999,15.1091,15.7853,137.0,183.0,98.0
-8.928600000000001,15.240699999999999,5.2021,98.0,77.0,74.0
-10.4892,14.5318,10.5627,82.0,130.0,62.0
-8.8988,15.8618,13.813400000000001,153.0,192.0,128.0
-13.5787,15.0206,15.866299999999999,138.0,187.0,138.0
-10.499600000000001,15.132000000000001,11.1182,118.0,155.0,86.0
-7.2387999999999995,17.0846,12.677,118.0,164.0,104.0
-10.6832,14.8365,10.0745,199.0,201.0,198.0
-9.1434,12.7308,9.234,111.0,164.0,121.0
-9.772699999999999,15.3422,14.5569,254.0,252.0,251.0
-8.931000000000001,15.259900000000002,6.694700000000001,122.0,85.0,64.0
-14.074900000000001,14.5576,15.7202,255.0,255.0,255.0
-13.2104,14.8088,15.7516,132.0,185.0,114.0
-10.5305,14.4512,9.572,129.0,184.0,117.0
-11.8726,14.613399999999999,15.493699999999999,168.0,197.0,170.0
-9.7119,15.2842,14.9343,253.0,251.0,246.0
-9.476999999999999,15.1993,15.3457,245.0,247.0,246.0
-9.4249,15.2093,11.0955,191.0,146.0,126.0
-6.7441,17.3956,12.557599999999999,120.0,165.0,117.0
-9.1347,11.4189,8.8504,137.0,175.0,137.0
-7.7859,16.3826,12.6208,128.0,157.0,107.0
-9.724499999999999,15.2524,14.244499999999999,236.0,233.0,236.0
-8.0776,11.2682,8.2546,161.0,176.0,187.0
-10.395,14.188600000000001,10.7383,115.0,169.0,90.0
-9.6478,15.301200000000001,13.355,177.0,142.0,128.0
-13.728399999999999,15.2233,15.9251,119.0,176.0,103.0
-8.4469,16.7591,13.8214,151.0,183.0,152.0
-8.318,16.409499999999998,13.1601,215.0,216.0,197.0
-9.565800000000001,15.254999999999999,11.8591,164.0,151.0,153.0
-8.5243,10.2743,7.7489,211.0,212.0,202.0
-9.621599999999999,15.7812,10.372,103.0,130.0,57.0
-9.6767,15.185,13.309000000000001,146.0,128.0,113.0
-9.771,16.229499999999998,9.172600000000001,84.0,132.0,100.0
-5.1307,15.0393,12.3614,193.0,209.0,169.0
-10.584200000000001,14.744399999999999,10.7309,102.0,140.0,89.0
-8.5596,16.488,13.842099999999999,151.0,190.0,155.0
-9.168999999999999,14.9857,16.3522,230.0,232.0,222.0
-12.2651,14.7644,15.584700000000002,135.0,186.0,118.0
-5.2909,18.2007,12.5407,143.0,180.0,108.0
-8.698599999999999,16.0027,13.2056,139.0,146.0,127.0
-10.2875,14.8996,11.7357,104.0,126.0,81.0
-6.7932999999999995,14.3459,14.1372,180.0,220.0,156.0
-8.3747,11.5049,8.4931,118.0,167.0,124.0
-6.387700000000001,14.7254,13.232,177.0,219.0,154.0
-7.1828,14.6872,13.646600000000001,177.0,218.0,159.0
-8.9709,15.2726,6.737799999999999,89.0,64.0,54.0
-4.9827,18.384600000000002,12.5641,128.0,171.0,103.0
-9.0004,15.2722,5.4054,93.0,70.0,61.0
-13.175600000000001,15.7075,15.845799999999999,108.0,168.0,77.0
-7.1766,17.4369,12.9211,137.0,173.0,119.0
-7.251,17.4563,13.047900000000002,135.0,174.0,120.0
-7.5824,14.403099999999998,14.3289,178.0,218.0,155.0
-12.973,15.5775,15.821,105.0,163.0,64.0
-9.6998,15.271299999999998,15.814300000000001,249.0,252.0,251.0
-10.713799999999999,14.9482,10.2389,254.0,252.0,247.0
-9.4885,16.4363,9.0882,65.0,70.0,56.0
-7.492999999999999,14.294799999999999,15.038699999999999,173.0,211.0,142.0
-7.6045,17.3007,13.5059,123.0,172.0,104.0
-9.0253,15.0431,5.3015,117.0,82.0,66.0
-8.5129,16.218,12.712100000000001,248.0,246.0,242.0
-9.8945,14.2813,12.869900000000001,249.0,248.0,243.0
-12.965499999999999,15.4282,15.7171,126.0,180.0,109.0
-6.8885000000000005,14.221900000000002,14.4889,169.0,215.0,147.0
-7.6333,17.139,13.216,125.0,169.0,103.0
-9.306799999999999,15.226500000000001,16.5767,250.0,250.0,248.0
-9.3007,15.2518,10.4947,133.0,86.0,77.0
-8.7283,15.210799999999999,4.6925,44.0,36.0,37.0
-8.7022,15.3212,15.4457,165.0,194.0,147.0
-13.156399999999998,14.4086,15.547600000000001,254.0,254.0,254.0
-9.0661,15.301799999999998,8.8461,92.0,63.0,58.0
-11.1717,15.767000000000001,16.433600000000002,249.0,239.0,228.0
-8.146,14.466399999999998,15.502099999999999,148.0,196.0,120.0
-13.8246,15.567800000000002,15.7709,143.0,182.0,129.0
-9.161900000000001,15.851899999999999,13.9987,192.0,198.0,161.0
-9.9909,14.087299999999999,12.1301,125.0,159.0,104.0
-5.7989,18.246499999999997,12.6452,116.0,171.0,101.0
-8.6356,11.620999999999999,8.596,119.0,169.0,118.0
-8.902000000000001,16.0568,12.3524,184.0,196.0,181.0
-11.6236,15.484200000000001,16.126199999999997,122.0,175.0,81.0
-9.2968,15.8498,10.430200000000001,172.0,206.0,171.0
-8.9327,15.253400000000001,6.546200000000001,132.0,82.0,62.0
-10.3244,14.596300000000001,11.1675,111.0,159.0,98.0
-8.9818,15.255099999999999,6.446599999999999,117.0,73.0,56.0
-10.0929,14.1881,11.834999999999999,122.0,168.0,104.0
-9.481100000000001,12.8223,9.4402,110.0,160.0,119.0
-6.848,14.974799999999998,13.2159,190.0,223.0,180.0
-12.717300000000002,15.792100000000001,16.3156,244.0,246.0,236.0
-9.3708,16.4657,9.4139,82.0,100.0,81.0
-8.1334,12.080499999999999,8.796,130.0,171.0,129.0
-9.0835,15.6557,13.5751,252.0,254.0,254.0
-5.6464,14.641100000000002,13.2237,217.0,219.0,203.0
-6.282500000000001,14.3938,14.0869,174.0,215.0,154.0
-6.7498000000000005,14.263700000000002,14.325,180.0,219.0,159.0
-6.730899999999999,18.18,13.131799999999998,119.0,166.0,95.0
-7.0853,14.325899999999999,14.2821,174.0,217.0,152.0
-7.8534999999999995,16.5032,12.7472,133.0,170.0,113.0
-8.51,16.8631,13.750399999999999,147.0,139.0,103.0
-8.7882,14.735000000000001,14.7496,254.0,254.0,254.0
-6.748,17.622,12.6956,127.0,170.0,120.0
-9.7097,15.2615,15.109300000000001,254.0,252.0,251.0
-8.9826,13.353699999999998,9.449200000000001,139.0,183.0,148.0
-6.8951,17.106099999999998,12.442300000000001,127.0,171.0,115.0
-5.2921000000000005,18.0583,12.4958,134.0,173.0,123.0
-8.0079,16.7098,13.2594,128.0,178.0,109.0
-11.137,15.2577,16.003800000000002,146.0,184.0,115.0
-9.0711,15.147499999999999,5.6856,77.0,59.0,57.0
-12.924199999999999,15.3246,15.6867,127.0,178.0,118.0
-10.5241,14.243400000000001,9.7211,99.0,154.0,73.0
-8.9716,15.4037,7.3526,123.0,122.0,129.0
-7.4908,17.247,13.0634,125.0,158.0,104.0
-8.8797,14.920300000000001,5.0559,50.0,39.0,41.0
-5.988099999999999,14.984300000000001,12.6909,186.0,213.0,173.0
-9.0998,15.2676,9.1004,153.0,93.0,71.0
-10.2174,13.9146,10.950899999999999,90.0,133.0,70.0
-10.925,15.531400000000001,16.3158,142.0,185.0,116.0
-8.6201,11.3616,8.4728,124.0,174.0,122.0
-9.3583,16.2119,9.8,126.0,164.0,119.0
-10.1193,16.8356,8.6191,64.0,124.0,59.0
-10.318,15.2449,11.3704,196.0,200.0,193.0
-9.4167,16.1475,9.9222,113.0,143.0,82.0
-7.1690000000000005,18.0669,13.536200000000001,173.0,185.0,160.0
-7.7425,16.947200000000002,13.014100000000001,121.0,168.0,97.0
-9.407,15.2733,11.0814,159.0,118.0,106.0
-8.624600000000001,10.6616,8.1516,157.0,182.0,139.0
-12.065900000000001,14.9751,15.576200000000002,130.0,182.0,103.0
-10.4863,15.0379,11.1853,95.0,142.0,71.0
-7.7201,17.0298,13.1634,127.0,168.0,102.0
-8.8838,14.5877,15.5444,160.0,206.0,129.0
-7.8065999999999995,16.9604,13.3077,138.0,175.0,113.0
-9.1441,15.168300000000002,15.418899999999999,254.0,245.0,235.0
-8.9221,15.4437,7.2588,65.0,66.0,77.0
-6.6617,17.4406,12.5395,120.0,163.0,115.0
-8.230500000000001,16.4844,13.2132,119.0,142.0,94.0
-11.667,15.4888,16.1144,120.0,175.0,75.0
-7.4518,14.288799999999998,15.1814,177.0,214.0,150.0
-9.682300000000001,16.146,9.4287,75.0,126.0,82.0
-9.0725,15.1317,5.5485,84.0,44.0,38.0
-6.6845,17.780199999999997,12.8264,147.0,159.0,129.0
-12.9612,15.5354,15.564400000000001,254.0,254.0,255.0
-7.23,17.7539,13.500499999999999,149.0,182.0,130.0
-8.5466,16.267699999999998,12.901499999999999,142.0,157.0,130.0
-8.4707,12.6117,9.0196,111.0,164.0,126.0
-6.737799999999999,18.0014,13.0722,123.0,169.0,99.0
-11.572000000000001,14.8501,15.5528,149.0,190.0,131.0
-10.225900000000001,16.8259,8.806,78.0,120.0,91.0
-8.8687,15.144499999999999,5.795999999999999,183.0,147.0,118.0
-8.6077,14.8064,16.114800000000002,138.0,194.0,83.0
-13.219700000000001,15.6562,15.783900000000001,113.0,164.0,90.0
-8.5431,14.7352,14.488599999999998,229.0,226.0,218.0
-9.0641,15.673699999999998,13.611500000000001,251.0,255.0,255.0
-14.424999999999999,15.279699999999998,16.069300000000002,137.0,187.0,119.0
-5.3906,15.068599999999998,12.4282,175.0,199.0,201.0
-10.1936,15.1303,12.5121,188.0,171.0,137.0
-8.881699999999999,15.321399999999999,5.7395000000000005,117.0,92.0,79.0
-10.090300000000001,16.5936,8.9717,71.0,126.0,71.0
-9.4689,13.562899999999999,9.653,122.0,172.0,140.0
-9.495800000000001,15.2998,11.8984,190.0,165.0,142.0
-7.503,16.5533,12.556000000000001,95.0,101.0,84.0
-10.2098,17.2172,8.124,68.0,102.0,73.0
-8.6548,16.163,13.7909,151.0,189.0,134.0
-7.3778,17.3783,13.0763,135.0,154.0,117.0
-9.213000000000001,15.2734,9.653,130.0,96.0,82.0
-10.0646,16.9276,8.4211,76.0,127.0,72.0
-10.3504,14.3015,10.9235,121.0,172.0,96.0
-8.6369,16.3946,13.871400000000001,149.0,185.0,144.0
-13.833400000000001,15.375900000000001,15.9194,108.0,155.0,78.0
-8.287700000000001,16.7484,13.7264,133.0,180.0,146.0
-6.9911,14.2121,14.806,154.0,204.0,130.0
-9.3229,13.2078,9.5142,119.0,167.0,129.0
-5.8385,14.749300000000002,12.8464,188.0,222.0,158.0
-10.6406,14.732700000000001,10.4172,99.0,146.0,81.0
-10.732999999999999,15.193999999999999,16.1085,173.0,196.0,134.0
-9.1656,12.692300000000001,9.2292,118.0,170.0,131.0
-7.5901,14.3363,14.6994,167.0,208.0,132.0
-9.576500000000001,12.967400000000001,9.5008,123.0,166.0,135.0
-10.1004,14.306,11.9687,117.0,158.0,92.0
-10.274999999999999,14.593,11.4731,123.0,164.0,95.0
-10.6975,15.5092,16.2885,158.0,200.0,172.0
-10.139199999999999,13.9953,11.5134,137.0,182.0,121.0
-10.462399999999999,14.402000000000001,9.4167,125.0,175.0,112.0
-8.2765,11.358699999999999,8.4071,127.0,167.0,123.0
-10.6517,14.5619,9.9723,88.0,139.0,72.0
-8.1529,15.492,15.559899999999999,169.0,202.0,126.0
-10.2018,16.9849,8.5703,80.0,137.0,80.0
-10.1568,14.0404,11.4702,130.0,175.0,113.0
-10.1868,16.6511,9.025,91.0,140.0,103.0
-14.8504,15.315100000000001,16.1637,252.0,255.0,255.0
-9.757200000000001,14.7628,13.3832,235.0,232.0,219.0
-6.6979,14.4403,13.8382,181.0,222.0,156.0
-6.5504999999999995,17.4972,12.5084,136.0,180.0,133.0
-10.3507,14.873800000000001,11.568399999999999,109.0,132.0,87.0
-12.263200000000001,15.604499999999998,16.1329,124.0,175.0,77.0
-8.235299999999999,14.4394,15.083499999999999,161.0,204.0,125.0
-6.135800000000001,17.197000000000003,12.322700000000001,145.0,174.0,133.0
-9.1848,10.7691,8.2885,249.0,238.0,233.0
-13.2584,14.9703,15.801699999999999,138.0,184.0,107.0
-11.2706,15.6548,16.393,135.0,187.0,112.0
-10.1593,16.6206,9.0678,89.0,134.0,103.0
-7.635,17.0328,12.9647,126.0,172.0,109.0
-9.545,15.2367,15.5,236.0,233.0,232.0
-5.745,14.878,12.6276,172.0,214.0,140.0
-11.3706,14.9205,15.5806,145.0,189.0,127.0
-12.1785,14.5013,15.490499999999999,191.0,204.0,209.0
-7.7865,17.4429,13.855300000000002,206.0,215.0,198.0
-5.0837,15.0265,12.3681,188.0,196.0,171.0
-9.5266,15.204300000000002,11.7124,161.0,160.0,127.0
-10.6989,14.698500000000001,9.9679,116.0,131.0,121.0
-9.6981,16.6372,8.695,109.0,150.0,137.0
-9.481399999999999,15.2842,15.107899999999999,222.0,229.0,226.0
-12.1227,15.4912,16.0183,116.0,171.0,80.0
-9.7435,15.387899999999998,14.199700000000002,252.0,254.0,254.0
-10.7739,15.1833,16.0787,158.0,190.0,128.0
-8.9797,15.345,7.896699999999999,130.0,118.0,119.0
-14.310300000000002,14.735100000000001,15.5042,255.0,255.0,255.0
-8.656500000000001,13.5878,9.4272,98.0,155.0,95.0
-9.608500000000001,15.321299999999999,12.754999999999999,228.0,207.0,193.0
-11.1763,15.7119,16.4274,195.0,203.0,180.0
-8.9919,15.264800000000001,7.8502,103.0,75.0,71.0
-9.1729,12.259,9.153,118.0,162.0,119.0
-8.511199999999999,12.906300000000002,9.1322,99.0,146.0,104.0
-13.9207,15.2262,15.978700000000002,143.0,193.0,144.0
-8.3732,12.8718,9.096,114.0,161.0,128.0
-8.879299999999999,15.3074,5.6944,124.0,96.0,83.0
-8.142299999999999,15.465100000000001,15.5586,169.0,204.0,135.0
-10.276499999999999,14.6756,11.950199999999999,134.0,151.0,85.0
-9.543600000000001,15.4774,14.0303,164.0,158.0,131.0
-8.2875,14.579400000000001,14.474799999999998,179.0,207.0,158.0
-9.9309,15.3277,16.1231,216.0,218.0,205.0
-13.1541,15.792100000000001,15.9831,101.0,160.0,50.0
-10.132,13.844000000000001,11.5737,188.0,200.0,184.0
-10.3702,13.9383,10.3185,108.0,165.0,94.0
-12.4183,15.077499999999999,15.6081,135.0,179.0,117.0
-9.6195,15.2502,14.350999999999999,224.0,216.0,219.0
-10.3417,14.4011,10.9243,127.0,175.0,104.0
-8.8538,14.6595,15.853200000000001,151.0,194.0,93.0
-7.7422,14.633,13.986699999999999,154.0,180.0,133.0
-9.5227,12.5584,9.393799999999999,122.0,164.0,131.0
-8.9803,15.493199999999998,6.7858,97.0,66.0,55.0
-6.7376000000000005,17.8797,12.9804,128.0,158.0,122.0
-7.7459,14.397199999999998,14.581900000000001,167.0,211.0,146.0
-5.795999999999999,17.586399999999998,12.3754,128.0,171.0,112.0
-8.9343,15.8428,13.7186,131.0,173.0,85.0
-9.2547,15.2944,15.1307,253.0,247.0,242.0
-12.9167,15.124099999999999,15.7085,108.0,174.0,72.0
-9.7308,15.069199999999999,13.0197,255.0,252.0,245.0
-8.927,15.4663,6.4973,108.0,79.0,67.0
-9.138300000000001,16.004199999999997,14.0177,254.0,254.0,254.0
-8.956,15.4503,15.1889,220.0,217.0,199.0
-11.4723,15.767500000000002,16.4766,248.0,242.0,225.0
-8.7512,15.9534,13.305900000000001,140.0,167.0,111.0
-12.615100000000002,15.2836,15.6668,127.0,176.0,108.0
-8.064200000000001,11.713999999999999,8.4661,69.0,74.0,58.0
-9.6629,15.8318,10.1251,111.0,138.0,67.0
-7.756499999999999,16.9692,13.1467,147.0,182.0,123.0
-5.4792,14.956,12.509200000000002,180.0,202.0,159.0
-10.472900000000001,14.6343,10.7771,100.0,142.0,87.0
-6.3988000000000005,17.0586,12.1796,246.0,251.0,247.0
-6.548800000000001,14.252699999999999,14.343,185.0,225.0,171.0
-12.969,15.6059,15.8494,108.0,171.0,61.0
-6.3206,18.2774,12.931799999999999,137.0,180.0,125.0
-10.3682,13.9429,10.4779,125.0,178.0,108.0
-8.194799999999999,14.731,14.1804,178.0,191.0,177.0
-6.6934,14.2646,14.3183,183.0,222.0,163.0
-10.2055,14.405899999999999,11.6775,112.0,161.0,89.0
-6.796,14.307400000000001,14.2409,182.0,219.0,157.0
-7.9342,16.7996,13.311600000000002,137.0,179.0,113.0
-9.2532,15.6996,11.91,249.0,253.0,252.0
-9.288499999999999,14.725,9.9844,145.0,166.0,114.0
-5.7959,17.750799999999998,12.4553,118.0,168.0,105.0
-4.574,18.5351,12.317300000000001,143.0,152.0,126.0
-9.6933,15.346599999999999,14.943600000000002,246.0,242.0,238.0
-13.863900000000001,15.4334,15.8929,123.0,164.0,91.0
-9.3659,13.5148,9.617199999999999,120.0,168.0,126.0
-9.995800000000001,14.2348,12.3448,126.0,172.0,111.0
-13.1136,15.527099999999999,15.714500000000001,113.0,166.0,93.0
-8.341700000000001,13.118099999999998,9.1852,118.0,149.0,128.0
-8.5722,12.6215,9.0393,111.0,161.0,126.0
-8.9887,14.816299999999998,15.812100000000001,125.0,189.0,91.0
-8.8852,15.2129,5.1474,117.0,88.0,79.0
-8.8013,11.398800000000001,8.572799999999999,110.0,161.0,98.0
-9.1746,15.204300000000002,9.394,117.0,56.0,43.0
-10.7702,15.083499999999999,15.9193,165.0,192.0,129.0
-9.7485,15.395,14.269499999999999,250.0,254.0,254.0
-6.3531,18.2601,12.945200000000002,136.0,179.0,124.0
-9.8914,14.825099999999999,12.8357,121.0,163.0,90.0
-9.0337,13.352900000000002,9.4589,140.0,181.0,147.0
-10.9653,14.855599999999999,15.539,254.0,244.0,231.0
-6.7495,17.2543,12.4896,141.0,180.0,135.0
-8.2186,12.615699999999999,8.9751,168.0,195.0,180.0
-7.8597,16.3157,12.562899999999999,209.0,207.0,201.0
-9.0404,15.3392,6.2799,81.0,71.0,69.0
-9.119,15.639600000000002,13.6465,252.0,254.0,255.0
-14.7227,14.967500000000001,16.0248,162.0,194.0,146.0
-8.9528,10.644499999999999,8.3316,219.0,220.0,206.0
-9.9677,14.699699999999998,12.5776,89.0,102.0,73.0
-8.808100000000001,15.907599999999999,13.705700000000002,138.0,178.0,101.0
-6.2396,17.7512,12.5666,115.0,168.0,108.0
-9.2092,14.446600000000002,9.8186,69.0,95.0,89.0
-6.9669,14.1552,14.8034,128.0,140.0,76.0
-7.915,15.494900000000001,15.5474,177.0,196.0,168.0
-9.8442,14.6952,12.8719,141.0,167.0,99.0
-12.8161,15.546299999999999,15.808800000000002,113.0,170.0,73.0
-8.9848,15.261099999999999,6.5018,117.0,70.0,54.0
-9.228200000000001,13.4512,9.5616,131.0,178.0,144.0
-8.6032,13.4907,9.3812,113.0,162.0,116.0
-9.4057,16.0745,9.8778,95.0,134.0,92.0
-7.7182,16.9179,12.947000000000001,126.0,170.0,108.0
-8.3895,14.5068,14.7536,165.0,206.0,138.0
-9.7263,15.272,13.5088,197.0,151.0,108.0
-9.6392,15.331800000000001,15.4009,218.0,170.0,148.0
-10.3345,15.154799999999998,11.5205,100.0,147.0,70.0
-12.364,15.128400000000001,15.6306,128.0,174.0,109.0
-11.3594,14.8141,15.4948,157.0,202.0,164.0
-9.4685,13.4023,9.6078,116.0,168.0,133.0
-9.3441,15.1623,9.997200000000001,70.0,37.0,29.0
-7.5919,14.7741,13.7179,167.0,182.0,155.0
-9.280199999999999,13.067,9.4406,140.0,187.0,147.0
-8.9978,15.409999999999998,7.317,186.0,191.0,194.0
-8.1907,12.5143,8.9422,116.0,158.0,126.0
-9.3518,13.7061,9.6776,125.0,172.0,132.0
-11.4574,15.8034,16.4585,255.0,253.0,244.0
-4.9575000000000005,18.4392,12.5304,182.0,194.0,140.0
-10.7752,15.5163,16.3217,151.0,188.0,128.0
-9.2089,15.5181,12.360100000000001,134.0,164.0,102.0
-6.3725000000000005,18.5463,13.0783,64.0,98.0,74.0
-9.7489,14.532,13.200600000000001,228.0,217.0,198.0
-10.269499999999999,15.256900000000002,16.2017,169.0,194.0,137.0
-13.5327,14.6712,15.7133,160.0,196.0,152.0
-9.2695,15.9868,10.2706,95.0,126.0,83.0
-7.383900000000001,14.269100000000002,15.2765,184.0,219.0,159.0
-7.181,14.389,14.1374,183.0,221.0,152.0
-10.2435,16.9179,8.7072,87.0,128.0,114.0
-8.9047,11.752600000000001,8.774,112.0,159.0,107.0
-12.3142,15.503400000000001,15.9492,117.0,173.0,73.0
-7.1332,14.2462,14.585,171.0,207.0,137.0
-9.6828,15.284,15.5498,243.0,241.0,242.0
-5.4796,15.0455,12.447,185.0,189.0,184.0
-9.9094,15.9648,9.6499,90.0,130.0,81.0
-8.279499999999999,11.819799999999999,8.6447,116.0,163.0,115.0
-8.9738,11.9661,8.9063,120.0,169.0,116.0
-8.1144,14.5583,15.717600000000001,128.0,190.0,94.0
-8.9255,12.2125,8.9474,116.0,164.0,115.0
-8.898100000000001,15.9036,13.856499999999999,165.0,195.0,133.0
-10.6187,15.4677,16.2802,152.0,190.0,133.0
-5.651,18.0474,12.5443,130.0,170.0,122.0
-8.8796,14.1144,9.6243,72.0,111.0,85.0
-8.6873,14.7305,14.588499999999998,254.0,254.0,254.0
-9.0517,15.3429,8.540799999999999,111.0,93.0,93.0
-10.0563,16.5681,9.0244,68.0,119.0,65.0
-11.1189,14.9953,15.713799999999999,150.0,188.0,122.0
-6.3318,18.3844,13.0208,145.0,186.0,134.0
-6.6982,14.3364,14.133799999999999,177.0,218.0,155.0
-8.1417,16.9939,13.753099999999998,125.0,173.0,113.0
-10.3598,14.6984,11.3224,112.0,161.0,84.0
-9.1531,15.257000000000001,9.3897,153.0,90.0,70.0
-6.4025,17.9034,12.7492,140.0,181.0,133.0
-5.9766,17.2837,12.229099999999999,127.0,150.0,102.0
-14.068800000000001,15.2758,15.9987,135.0,186.0,121.0
-11.7768,15.4589,16.0463,118.0,176.0,75.0
-8.6666,14.7758,15.936,132.0,191.0,82.0
-8.8643,15.248000000000001,6.3514,156.0,117.0,96.0
-5.892399999999999,14.604600000000001,13.242399999999998,174.0,216.0,134.0
-5.845199999999999,18.049100000000003,12.5909,129.0,173.0,131.0
-9.0723,15.2894,5.252,55.0,40.0,42.0
-9.3402,11.9244,9.2859,145.0,183.0,149.0
-8.847199999999999,15.1863,5.0496,72.0,50.0,50.0
-9.2535,15.1766,9.9912,170.0,159.0,159.0
-8.3429,14.4876,14.7956,166.0,207.0,149.0
-5.346900000000001,17.715500000000002,12.3975,141.0,141.0,107.0
-8.8703,12.509300000000001,9.0171,126.0,169.0,124.0
-10.3011,14.1099,11.0046,92.0,148.0,69.0
-11.3146,15.332299999999998,16.0758,144.0,183.0,100.0
-6.1,17.549899999999997,12.4391,127.0,177.0,128.0
-8.7413,14.643999999999998,15.8922,148.0,199.0,112.0
-8.9771,15.249099999999999,7.543800000000001,134.0,123.0,110.0
-6.938999999999999,14.3371,14.182900000000002,182.0,220.0,157.0
-11.3661,15.1226,15.785599999999999,129.0,180.0,86.0
-9.1248,15.160699999999999,5.5062,74.0,55.0,53.0
-8.8103,14.0677,9.5809,29.0,36.0,34.0
-10.5103,15.4276,16.2594,148.0,187.0,141.0
-12.732199999999999,15.399299999999998,15.599599999999999,254.0,254.0,247.0
-5.942200000000001,18.3969,12.7408,111.0,164.0,102.0
-10.1827,15.143,12.4292,142.0,154.0,119.0
-6.1357,17.3428,12.3654,119.0,172.0,113.0
-10.123999999999999,17.1076,8.1771,76.0,144.0,70.0
-12.4601,15.7105,16.2803,138.0,176.0,96.0
-8.967500000000001,15.2991,7.744,86.0,62.0,62.0
-7.0718000000000005,14.85,13.400599999999999,170.0,205.0,155.0
-14.7692,15.179200000000002,16.1249,149.0,188.0,125.0
-7.359400000000001,17.6588,13.6519,132.0,169.0,112.0
-8.8285,15.4972,6.6912,98.0,74.0,69.0
-7.8782000000000005,16.825599999999998,13.119900000000001,136.0,180.0,118.0
-8.322000000000001,12.1509,8.8218,128.0,168.0,117.0
-12.8,15.695200000000002,16.0929,111.0,173.0,48.0
-6.5451999999999995,17.7669,12.7423,133.0,172.0,122.0
-13.721900000000002,15.3773,15.8638,129.0,174.0,110.0
-14.252400000000002,15.662499999999998,15.948200000000002,255.0,244.0,238.0
-8.278,11.554300000000001,8.4998,131.0,172.0,141.0
-9.3513,15.1646,10.4229,187.0,175.0,160.0
-9.2332,14.8776,15.9272,255.0,255.0,255.0
-9.0776,14.9542,5.0561,58.0,49.0,56.0
-8.9637,12.5879,9.077300000000001,111.0,151.0,113.0
-8.564,13.1978,9.282,102.0,159.0,105.0
-9.024000000000001,15.2058,15.441699999999999,236.0,236.0,227.0
-9.1609,15.2149,15.2469,154.0,190.0,138.0
-11.011600000000001,15.090200000000001,15.8638,150.0,187.0,120.0
-9.1107,14.734300000000001,15.792300000000001,254.0,255.0,255.0
-7.692200000000001,16.4527,12.648499999999999,106.0,113.0,83.0
-9.119299999999999,10.7699,8.441,88.0,107.0,127.0
-12.006699999999999,15.093100000000002,15.512699999999999,254.0,254.0,255.0
-10.1776,17.3583,7.9063,80.0,91.0,73.0
-8.6289,16.2007,13.7708,150.0,189.0,139.0
-8.9808,13.257,9.4032,130.0,178.0,140.0
-5.839600000000001,14.475,13.5442,184.0,213.0,164.0
-7.7979,15.568499999999998,15.8419,153.0,171.0,115.0
-12.9753,15.6783,15.9305,107.0,165.0,66.0
-10.5251,14.447799999999999,10.366999999999999,92.0,139.0,78.0
-12.874099999999999,14.5212,15.634899999999998,164.0,195.0,154.0
-9.9344,14.152899999999999,12.4848,188.0,198.0,187.0
-9.963099999999999,16.2969,9.327100000000002,77.0,125.0,47.0
-6.1377,17.1437,12.300899999999999,133.0,161.0,103.0
-8.9332,15.2159,4.9401,59.0,49.0,53.0
-10.0982,17.036,8.2311,76.0,137.0,64.0
-9.2873,12.4083,9.2442,101.0,160.0,109.0
-9.3691,11.6112,9.1204,60.0,60.0,60.0
-13.211999999999998,15.8922,15.887,103.0,171.0,74.0
-9.2241,14.2539,9.8678,133.0,174.0,111.0
-5.3905,14.9731,12.471400000000001,193.0,203.0,179.0
-9.2564,15.711500000000001,11.9534,206.0,220.0,215.0
-7.5625,14.461099999999998,14.169200000000002,181.0,221.0,160.0
-10.5229,14.502399999999998,9.5685,91.0,120.0,94.0
-11.0262,15.179,15.984000000000002,150.0,186.0,108.0
-7.3078,17.7095,13.603100000000001,141.0,177.0,124.0
-6.2308,14.334900000000001,14.239199999999999,232.0,237.0,232.0
-11.4288,15.354999999999999,16.0486,132.0,180.0,88.0
-8.9348,13.261800000000001,9.395100000000001,134.0,180.0,146.0
-8.7649,13.2182,9.3357,111.0,162.0,120.0
-8.3672,16.9695,13.836300000000001,249.0,251.0,248.0
-11.6282,14.8642,15.549299999999999,148.0,187.0,126.0
-9.5913,15.2398,14.452499999999999,249.0,251.0,251.0
-14.0199,15.4221,15.981799999999998,146.0,187.0,143.0
-9.4029,15.262,15.0418,255.0,248.0,242.0
-8.0366,16.4417,12.8107,135.0,169.0,106.0
-10.058300000000001,14.263200000000001,12.555,248.0,245.0,238.0
-7.8889000000000005,14.3639,14.890900000000002,182.0,220.0,152.0
-7.678699999999999,17.3336,13.7097,126.0,174.0,109.0
-8.727699999999999,11.562,8.5996,122.0,170.0,125.0
-7.882599999999999,14.4214,14.5952,176.0,215.0,143.0
-7.5338,17.185,13.019300000000001,123.0,167.0,110.0
-6.645,14.719999999999999,13.3773,173.0,212.0,146.0
-5.5676000000000005,18.3961,12.686,118.0,159.0,108.0
-7.795299999999999,16.3966,12.6495,144.0,166.0,121.0
-9.0456,15.740199999999998,13.871400000000001,161.0,190.0,123.0
-12.1105,14.668000000000001,15.554299999999998,132.0,180.0,100.0
-6.0746,14.5061,13.4527,179.0,217.0,137.0
-12.4054,15.4383,15.8186,111.0,169.0,85.0
-12.075700000000001,15.0611,15.598500000000001,143.0,189.0,115.0
-4.9128,18.4454,12.5908,169.0,198.0,138.0
-14.0229,14.616000000000001,15.686300000000001,248.0,250.0,249.0
-15.187600000000002,15.132200000000001,16.1642,240.0,238.0,224.0
-9.4225,15.222199999999999,16.2478,236.0,237.0,236.0
-10.008000000000001,16.3315,9.3166,74.0,130.0,66.0
-8.7877,14.729500000000002,14.837200000000001,254.0,254.0,254.0
-5.9372,14.9895,12.6406,187.0,205.0,180.0
-9.521,16.4796,9.259,94.0,132.0,69.0
-8.9249,15.3459,5.7521,104.0,85.0,77.0
-8.6863,16.5748,13.9487,255.0,255.0,255.0
-6.5763,17.5973,12.5759,128.0,183.0,131.0
-13.262699999999999,14.7999,15.750300000000001,133.0,185.0,102.0
-9.3076,11.701,9.1761,142.0,178.0,140.0
-10.6123,15.1096,16.0361,147.0,191.0,111.0
-9.5989,15.9569,10.0609,111.0,138.0,79.0
-7.6672,16.9718,12.9496,124.0,167.0,111.0
-15.0221,15.0725,16.119600000000002,172.0,194.0,152.0
-9.4439,16.055600000000002,10.1571,114.0,143.0,85.0
-10.3391,14.6487,11.2639,106.0,154.0,94.0
-9.772300000000001,14.5981,13.080300000000001,126.0,128.0,102.0
-9.5543,16.078,9.8066,94.0,125.0,66.0
-10.2389,15.0467,11.8266,132.0,171.0,112.0
-8.3367,14.4973,15.449399999999999,165.0,209.0,139.0
-8.3146,11.079,8.2826,143.0,181.0,126.0
-8.080400000000001,16.5362,13.0134,121.0,163.0,92.0
-7.3641,16.769000000000002,12.5917,136.0,164.0,116.0
-10.7552,15.6704,16.2972,243.0,235.0,221.0
-10.2838,15.3122,11.8726,250.0,242.0,224.0
-8.8781,14.6172,15.6783,152.0,203.0,120.0
-8.995000000000001,15.303600000000001,8.0061,90.0,63.0,64.0
-12.4773,15.820300000000001,16.3734,246.0,236.0,219.0
-13.221,14.9763,15.7913,128.0,178.0,102.0
-7.327,16.6327,12.369299999999999,224.0,230.0,225.0
-6.0022,17.3492,12.2888,130.0,175.0,131.0
-10.0106,16.965700000000002,8.287600000000001,71.0,124.0,67.0
-9.558300000000001,16.2144,9.553,96.0,132.0,68.0
-8.0698,11.7936,8.565000000000001,106.0,130.0,105.0
-10.3216,15.4585,16.2436,151.0,188.0,147.0
-12.2158,15.486600000000001,15.9726,123.0,172.0,91.0
-6.7458,17.5627,12.648699999999998,117.0,157.0,112.0
-14.8662,15.0259,16.0838,157.0,189.0,139.0
-9.3573,11.8225,9.308900000000001,49.0,64.0,61.0
-8.9854,15.2223,4.6485,33.0,27.0,31.0
-10.2867,14.3023,11.1697,105.0,157.0,80.0
-10.494299999999999,14.175699999999999,10.1717,103.0,160.0,83.0
-8.777600000000001,10.6049,8.201799999999999,145.0,179.0,122.0
-9.6153,16.7143,8.4148,88.0,128.0,79.0
-10.4432,14.0755,10.2744,101.0,160.0,82.0
-10.6609,15.0201,15.828700000000001,157.0,188.0,142.0
-6.1947,18.5504,12.9029,134.0,176.0,138.0
-8.2897,14.608099999999999,15.8808,169.0,197.0,130.0
-5.8631,18.543000000000003,12.759699999999999,236.0,235.0,228.0
-10.141,17.233,7.978899999999999,94.0,137.0,83.0
-5.9224,15.0319,12.587100000000001,253.0,252.0,251.0
-9.1264,13.2659,9.4428,123.0,169.0,128.0
-12.1349,15.2435,15.5859,251.0,255.0,255.0
-13.0685,14.462800000000001,15.665799999999999,249.0,253.0,253.0
-10.4136,15.2828,16.2085,154.0,192.0,121.0
-6.610099999999999,17.4048,12.4922,121.0,165.0,112.0
-8.9879,11.3593,8.7063,126.0,169.0,112.0
-7.5362,14.3088,15.1221,173.0,212.0,145.0
-7.1786,17.6847,13.3217,138.0,142.0,122.0
-6.2085,18.5104,12.9382,144.0,175.0,140.0
-11.2286,14.7626,15.3971,254.0,254.0,254.0
-9.0346,14.981,5.027,80.0,52.0,47.0
-12.2698,15.0284,15.590399999999999,136.0,181.0,119.0
-13.220699999999999,14.6067,15.696399999999999,154.0,193.0,144.0
-10.2622,14.3985,11.4237,124.0,178.0,101.0
-8.5221,11.2021,8.3793,113.0,162.0,117.0
-7.6865000000000006,17.0941,13.2602,126.0,169.0,104.0
-8.4226,12.3597,8.9124,113.0,156.0,115.0
-8.321399999999999,16.4274,13.0853,139.0,142.0,106.0
-6.379,14.422699999999999,13.8435,177.0,219.0,152.0
-10.542,14.3047,9.7255,100.0,157.0,75.0
-9.635,15.3332,15.9579,186.0,184.0,131.0
-5.5514,14.7207,12.781799999999999,182.0,219.0,153.0
-9.576500000000001,16.680600000000002,8.6936,115.0,164.0,117.0
-8.2276,12.1128,8.8107,119.0,159.0,108.0
-6.3442,17.7022,12.5632,114.0,165.0,106.0
-7.0345,14.646400000000002,13.6459,181.0,222.0,166.0
-9.3754,15.0654,15.0825,254.0,254.0,254.0
-8.147,16.5538,13.214200000000002,124.0,144.0,94.0
-8.8821,14.9279,16.226599999999998,181.0,202.0,166.0
-9.6646,15.157399999999999,13.553,253.0,253.0,251.0
-8.086599999999999,11.4625,8.3429,73.0,78.0,64.0
-8.8537,15.335799999999999,5.9385,140.0,117.0,99.0
-6.5920000000000005,14.6738,13.428799999999999,180.0,214.0,143.0
-8.8383,15.4953,7.248499999999999,172.0,130.0,106.0
-8.2307,10.874,8.1027,217.0,226.0,219.0
-9.569999999999999,15.240699999999999,11.6277,253.0,253.0,253.0
-7.838399999999999,16.6348,12.822700000000001,111.0,165.0,99.0
-5.9338,14.8016,12.8104,179.0,221.0,150.0
-8.3759,11.619,8.5456,121.0,166.0,122.0
