-13.037399999999998,14.695799000000001,15.284,182,195,139
-14.2563,16.9265,18.6554,251,254,254
-9.0357,19.402801,14.236799999999999,180,198,168
-8.5716,17.604300000000002,13.3408,142,180,96
-9.175600000000001,18.7831,18.5196,160,198,150
-6.4762,22.059,17.576700000000002,180,222,165
-9.5545,17.5276,11.236799999999999,119,159,105
-6.5722000000000005,19.811,9.2721,128,166,119
-10.0419,17.9286,8.7016,101,140,60
-9.6868,17.263199,10.446,132,148,97
-12.4977,16.1002,16.5373,155,185,140
-12.0523,15.800798999999998,16.084,163,187,139
-13.236301000000001,13.6847,14.438,145,175,123
-10.401299999999999,18.2717,18.356299,254,254,254
-13.238100999999999,13.331599999999998,14.279300000000001,138,171,118
-12.8198,15.065899,15.762899999999998,137,169,101
-7.1207,22.936,17.7425,175,200,149
-6.7682,23.282801,17.5097,211,223,182
-13.625699,16.791700000000002,19.605599,135,179,108
-8.9597,14.9946,15.7232,90,140,41
-13.835201,13.412099999999999,14.1647,210,214,197
-10.684299999999999,16.4426,16.443799000000002,161,188,104
-13.2319,14.6448,15.3393,178,189,128
-7.553400000000001,21.240000000000002,9.3886,70,127,47
-8.365499999999999,16.826899,14.5138,137,181,140
-9.4434,21.551301000000002,11.727500000000001,164,185,134
-6.6895999999999995,20.7285,17.737301,252,252,246
-12.9484,14.2202,14.721200000000001,123,160,101
-12.2736,17.719099999999997,18.7599,245,250,255
-8.0809,22.539601,18.133999,175,210,148
-7.463500000000001,18.598901,7.1451,121,116,109
-8.6726,17.242300999999998,13.678299999999998,105,161,52
-10.3502,20.6531,13.8905,133,174,116
-11.7073,15.063699999999999,15.5692,146,183,139
-7.5611999999999995,20.5163,9.828199999999999,129,161,116
-7.9799999999999995,18.198900000000002,9.7735,71,69,40
-14.088899999999999,14.4034,15.7941,166,190,120
-12.0139,13.447398999999999,15.3283,143,144,121
-9.0177,18.932199,18.4637,167,201,150
-13.060901,17.414901,18.9468,140,176,119
-7.808,21.3843,18.114699,161,197,140
-12.4153,15.109998999999998,15.243198999999999,247,251,253
-9.225200000000001,17.227601,13.719299,88,134,72
-8.729000000000001,17.4463,13.320000000000002,138,183,75
-11.7688,15.715399,15.6087,236,247,255
-9.572899999999999,16.3201,10.2991,141,173,120
-7.3194,22.6787,17.835499,177,205,152
-7.527200000000001,21.6241,17.9424,173,207,133
-10.0527,22.5942,11.9593,151,171,109
-6.2219999999999995,23.0216,17.327,202,224,148
-6.4637,22.8277,17.4008,187,220,139
-9.486500000000001,16.7161,10.846400000000001,123,164,107
-10.5151,17.218,7.9524,105,151,70
-9.6549,17.5699,10.9754,136,172,120
-11.7807,16.335,16.6425,165,186,121
-7.3488,19.8066,9.6936,139,190,136
-14.391100000000002,12.598,14.3591,218,221,191
-7.242800000000001,21.108,9.5062,141,172,125
-11.081299999999999,21.0476,13.670499999999999,63,56,40
-8.668,20.1323,18.229200000000002,169,203,145
-10.3805,22.0135,12.9935,104,156,84
-10.7636,20.400099,13.9973,126,181,99
-7.2223999999999995,20.1801,17.895199,227,233,223
-9.707699999999999,16.9205,9.7399,121,164,83
-9.0368,15.289900000000001,15.2034,112,151,74
-8.1697,15.953600000000002,15.483600000000001,139,153,137
-14.0154,13.128699,14.0201,208,212,189
-6.3416,20.8652,8.201500000000001,67,108,63
-12.8745,17.124601000000002,19.444001,165,201,145
-8.777899999999999,21.4817,18.278,164,206,135
-7.8054,18.8223,8.0584,69,69,59
-8.9889,15.9887,14.6595,102,133,69
-12.1913,13.2845,15.216299999999999,152,165,123
-13.0459,14.398800000000001,14.843200000000001,125,163,85
-9.4092,21.588799,12.0207,109,160,97
-8.163499999999999,15.9364,15.4162,172,181,151
-7.7629,21.9248,18.0143,169,202,162
-14.2427,13.333900000000002,14.748099,141,169,91
-8.8667,20.884,18.279799999999998,156,196,133
-9.3761,16.0739,14.770199,98,147,91
-14.041901000000001,16.9515,19.317899999999998,141,180,96
-9.5756,19.584799999999998,18.2863,154,196,161
-8.4357,17.8551,11.8658,254,245,237
-12.643801,13.835301,14.7627,123,164,104
-10.543099999999999,21.949799,13.232700999999999,139,176,120
-14.019200000000001,17.1059,18.950801000000002,154,186,129
-6.658799999999999,19.763499,9.3279,127,173,118
-9.114899999999999,17.9103,13.989600999999999,143,94,77
-12.095,14.929799999999998,15.412,135,164,120
-9.8178,22.351599999999998,11.977500000000001,107,154,80
-13.5702,14.221798999999999,14.969899999999999,135,165,101
-9.5184,16.9129,14.157300000000001,134,169,121
-9.516,18.074501,14.898000999999999,184,196,136
-6.2562999999999995,23.0257,17.316601000000002,192,222,144
-9.3864,21.3557,12.3825,119,164,95
-9.5978,21.235999,12.924199999999999,149,181,137
-9.339,16.908699,11.1608,119,154,93
-9.7838,22.192501,11.5736,117,126,93
-11.0124,20.591,13.750200000000001,253,250,245
-9.723600000000001,17.2636,9.9053,211,188,161
-11.9352,14.1789,15.3852,145,176,127
-8.0381,18.228801,9.9894,94,64,54
-10.5439,20.441300000000002,14.0441,129,179,95
-12.257,14.6394,15.225100999999999,145,172,129
-13.388900000000001,12.447,13.888501,249,243,222
-12.569500999999999,17.533401,19.092000000000002,135,174,110
-6.250400000000001,20.413600000000002,9.1617,112,172,109
-9.4107,19.2891,18.3869,169,208,152
-8.2218,16.775100000000002,14.720801,140,175,109
-9.4654,16.3838,10.4913,155,185,135
-11.3946,16.4557,16.691200000000002,144,179,106
-8.0318,21.925100999999998,18.1311,178,207,154
-7.417400000000001,19.052701,9.7248,110,129,89
-9.4519,19.948,14.0792,141,177,130
-10.239099999999999,17.191100000000002,17.0772,255,255,255
-9.3581,21.5387,12.068900000000001,117,168,106
-7.220400000000001,22.0926,17.7369,174,211,136
-8.1362,19.1331,18.146101,243,250,250
-9.574100000000001,17.8703,11.389100000000001,136,169,138
-6.7044999999999995,20.707798999999998,9.3414,133,180,114
-12.7823,15.472100999999999,16.263901,149,182,132
-10.7876,16.7731,16.8161,177,203,112
-12.3313,15.191001000000002,15.386499,188,195,174
-8.8623,16.599301,14.146,112,152,69
-12.4863,15.332298999999999,15.813099999999999,129,165,87
-7.667300000000001,22.379099999999998,17.964301,168,201,144
-6.9672,21.570800000000002,17.781501,173,209,160
-13.0813,14.548100999999999,15.107000000000001,152,177,108
-8.3876,17.511198999999998,13.704699000000002,251,252,251
-7.302599999999999,18.982001,5.7954,102,90,85
-8.8747,15.619799,15.0066,115,143,96
-7.081999999999999,22.4289,17.691100000000002,169,199,133
-9.288499999999999,21.7057,18.1192,173,197,172
-9.444700000000001,20.4753,18.1769,163,201,159
-9.0123,17.3361,13.4847,109,154,74
-10.945,22.544700000000002,13.118099999999998,147,198,96
-13.172001,17.368101,18.9401,152,182,118
-10.072000000000001,16.0468,14.7862,250,252,254
-13.780600000000002,14.5533,15.944999000000001,145,175,111
-13.386600000000001,12.482600000000001,13.897200000000002,208,209,171
-12.7666,14.915000000000001,15.4624,165,187,114
-9.6849,21.796699999999998,12.1864,136,166,97
-11.2036,16.654301,16.839199999999998,167,183,123
-13.6298,12.576,13.812,151,177,118
-6.5609,22.5398,17.484701,177,217,154
-11.8108,17.7076,19.0805,151,181,134
-10.1753,23.2987,11.5837,117,168,90
-6.9631,21.1564,7.848199999999999,89,119,86
-12.8968,12.584699999999998,14.395501,244,238,225
-8.737599999999999,17.3952,13.395999,143,192,96
-15.110499999999998,16.358601,19.586100000000002,150,183,108
-12.977300999999999,12.7386,14.340900000000001,138,172,115
-8.9803,18.032799999999998,13.073199999999998,172,186,130
-7.4085,21.301199,8.3024,76,121,58
-13.720099999999999,16.7812,19.5943,143,186,114
-7.4842,23.175199,17.820799,253,255,252
-8.9528,19.439999999999998,14.122000000000002,177,192,150
-7.549200000000001,19.159499999999998,9.7642,121,144,122
-9.5494,18.540899,14.876698999999999,174,211,135
-6.800000000000001,20.767801,9.364799999999999,136,182,107
-12.4778,12.9777,15.032201,183,194,163
-11.040600000000001,20.6687,13.752399,173,192,166
-7.2022,21.157899,8.6382,92,136,74
-7.087599999999999,22.179,17.682999,178,214,120
-10.3172,19.8378,14.3107,106,166,95
-8.978800000000001,17.618801,11.4001,163,188,148
-13.067198999999999,14.569899,15.116999999999999,128,162,78
-7.972700000000001,22.431999,18.088301,182,216,158
-8.883099999999999,22.2482,18.2549,251,254,253
-7.3174,22.729699,17.838199,177,204,151
-10.3823,16.990399,17.040201,254,254,252
-8.5283,17.9335,12.4489,217,167,135
-8.936399999999999,17.729899,13.739799999999999,255,255,255
-10.4972,22.839899,12.5228,163,183,128
-13.6068,16.325799999999997,19.729701,185,203,143
-10.245999999999999,17.1363,17.100599,255,255,255
-11.8506,15.704899999999999,15.652100999999998,239,247,255
-10.632800000000001,16.6789,16.6486,172,189,115
-10.9986,21.7352,13.4599,146,196,86
-8.776,21.172599,18.2924,156,196,137
-10.1554,17.2804,8.7318,119,157,101
-10.1858,17.122,8.6061,102,150,83
-11.696,15.840099999999998,15.901499999999999,217,227,215
-10.7568,21.288,13.663,148,187,132
-10.269200000000001,19.865499,14.2985,125,175,99
-8.2926,16.3552,15.0392,105,141,69
-7.4171000000000005,19.369701,9.7187,154,191,133
-14.390600000000001,16.450198999999998,19.8771,146,178,98
-8.8689,20.629101,18.290699999999998,158,199,141
-11.8354,16.2273,16.493,154,178,120
-11.0336,15.3724,15.767500000000002,141,180,129
-9.7026,22.150999,11.9879,197,210,181
-9.3691,16.639799999999997,14.380399999999998,130,163,115
-9.7534,17.6127,9.9415,141,181,81
-9.5971,18.5996,14.8608,165,201,123
-9.7364,18.1226,9.7842,98,159,67
-9.8568,19.5916,14.4181,130,172,104
-8.0743,18.087199000000002,10.2861,112,79,70
-12.2118,17.678501,18.892901000000002,162,182,149
-8.469100000000001,19.523799,18.3337,167,202,151
-8.9141,17.5125,13.264598999999999,121,163,76
-7.044499999999999,19.392398999999997,9.4681,136,159,104
-10.4805,22.1395,12.9455,160,181,131
-7.5669,22.0305,17.883401,165,194,133
-9.6463,17.875201,10.7508,115,161,102
-7.42,21.527400999999998,17.936499,164,206,145
-10.0039,16.269,14.457600000000001,251,248,246
-8.4454,19.005699,7.0992,110,157,88
-9.655,17.972099999999998,11.201600000000001,127,150,98
-8.3786,17.493699,13.729700000000001,249,249,245
-13.1763,14.2156,14.643999999999998,222,222,211
-13.237301000000002,17.3411,19.040499999999998,166,196,138
-10.4026,18.099301,18.422601,252,254,255
-8.42,19.2321,6.8159,121,174,91
-11.9293,14.788499,15.449201000000002,147,188,143
-7.508900000000001,21.1539,9.6357,120,153,98
-9.351700000000001,21.198700000000002,12.5761,112,161,111
-6.8313,21.031,9.1016,89,149,58
-11.8373,16.546901,17.046399,216,223,207
-8.6145,19.2752,6.3641000000000005,117,159,74
-12.469800000000001,16.764000000000003,19.341999,185,205,149
-12.955,17.4565,18.945099000000003,134,174,121
-13.780600000000002,17.138501,18.549301,239,249,254
-13.883901000000002,14.536399999999999,15.908401,172,190,132
-10.0269,22.9073,11.448500000000001,173,198,145
-8.8245,22.362299,18.182801,254,254,253
-9.7167,17.6617,10.1848,131,180,87
-10.0185,16.629601,8.9937,108,156,75
-14.167399999999999,16.812199,19.4407,134,174,93
-9.944899999999999,18.7995,14.6762,240,239,236
-8.9716,17.5083,13.199399,247,251,250
-13.652501,13.650601000000002,14.2654,235,246,255
-10.1811,17.2975,16.645101,251,255,255
-9.0654,16.8997,13.992199,109,147,82
-7.475999999999999,21.5755,17.9305,167,206,137
-12.720899,16.572601000000002,19.292,183,202,133
-8.3665,17.1275,14.209799,136,161,113
-8.1129,18.629099,7.711899999999999,112,162,78
-12.158199999999999,15.2849,15.521800999999998,135,181,115
-9.911399999999999,22.465,11.3925,174,188,179
-8.5781,17.037401,14.1294,114,149,96
-10.555,16.537499,16.481601,167,185,117
-8.913699999999999,19.931699,13.603399999999999,141,174,100
-13.9309,14.162999000000001,15.1234,146,171,117
-10.2919,16.2755,8.5019,106,153,81
-9.3976,19.6251,14.358,143,176,132
-11.6081,15.317400000000001,15.719201,145,181,128
-6.6752,22.8848,17.5053,170,200,112
-9.045200000000001,19.2045,18.4239,162,200,155
-8.2543,16.314501,15.101500000000001,110,151,83
-8.4423,16.155900000000003,15.142199000000002,122,153,107
-8.7634,16.074599,14.7249,98,140,62
-9.168,17.958199999999998,13.0689,154,177,93
-13.5795,12.628300000000001,13.854399,149,174,115
-9.066,17.6937,14.049900000000001,255,255,255
-8.3293,18.8981,18.265399,249,254,254
-12.8933,13.1901,14.455301,112,155,88
-13.209399999999999,14.1929,14.644299,198,198,164
-13.086999999999998,12.836599000000001,14.238000000000001,128,153,111
-8.5134,20.031499999999998,18.258099,164,205,146
-13.985100000000001,14.1311,15.154599999999999,144,172,115
-14.8976,16.7999,19.1907,247,242,217
-6.4712000000000005,23.0745,17.380399999999998,190,213,122
-10.569099999999999,17.3556,17.7651,251,255,255
-12.6945,14.793301,14.997300999999998,233,242,252
-10.6994,22.153901,13.1944,142,189,123
-9.607899999999999,21.619201,12.375,126,150,85
-8.351799999999999,19.615699,6.4159,116,139,83
-10.1065,20.107201,17.845801,255,254,254
-7.9275,20.583799,18.198,161,201,133
-13.161001,15.154,16.2268,151,177,115
-6.075,22.1944,17.528901,250,254,254
-13.083901000000001,15.0336,16.001999,150,176,116
-10.0495,23.1374,11.4403,142,172,119
-7.162399999999999,18.879101000000002,6.335100000000001,48,42,45
-9.124,18.2335,18.588801,193,204,169
-9.9758,19.2302,18.2614,153,197,166
-12.6865,13.139698999999998,14.703800000000001,114,135,96
-10.3779,17.1826,16.8542,219,224,213
-10.3674,19.385999,14.4317,169,190,160
-8.8728,17.955299999999998,12.6715,122,140,68
-13.034,13.9907,14.595801,136,165,106
-8.5596,17.6642,13.3209,163,180,127
-8.0667,20.4904,18.2128,156,199,126
-11.6926,15.821200999999999,15.706301,237,247,255
-12.636399,14.578,15.0067,145,176,133
-8.2214,22.679199,18.0978,196,223,166
-7.908900000000001,21.204600000000003,8.698599999999999,97,126,60
-10.2396,23.5789,11.3772,230,229,183
-9.2775,16.673199999999998,11.136899999999999,235,235,222
-10.0112,18.875600000000002,14.650599999999999,248,247,246
-12.2119,16.8623,19.242001000000002,190,208,161
-6.842099999999999,20.914701,9.349599999999999,141,184,108
-9.871099999999998,17.9675,9.4965,109,164,68
-8.9573,20.133300000000002,13.424900000000001,129,166,98
-8.5257,19.7717,18.3264,162,203,127
-7.4127,18.7024,6.9592,109,96,89
-13.082799000000001,14.0705,14.610999999999999,132,172,105
-9.9588,22.573701,11.9664,125,162,90
-9.833699999999999,16.015799,9.4455,152,181,110
-12.4385,13.730999999999998,14.951099000000001,131,170,112
-7.571,19.8817,18.0007,171,188,146
-10.1405,17.166901000000003,8.7049,111,155,92
-8.7282,17.3342,13.482,149,187,81
-8.128499999999999,19.877,18.226001,163,198,151
-7.9258,21.219701,9.2822,80,125,37
-8.2133,18.6324,7.5589,112,159,81
-8.1126,16.866601,14.6779,210,209,202
-14.171,14.068900000000001,15.216899999999999,154,179,125
-9.2161,17.083098999999997,13.8327,98,141,87
-8.2986,15.034001,15.6406,201,206,171
-14.1139,13.4606,14.6753,147,172,107
-13.6823,14.786800999999999,16.205999,152,183,131
-7.9228000000000005,19.330999,17.8535,225,223,196
-11.942,15.802299999999999,16.028699,144,178,121
-7.6663,20.430999999999997,18.1023,164,198,140
-6.258,20.8498,8.4423,69,125,45
-8.4639,16.725899,14.464599999999999,132,168,97
-8.4222,20.090701,18.255401,163,201,142
-9.5541,19.7533,14.286201000000002,138,174,109
-12.601299999999998,15.733001,16.337799999999998,155,186,149
-12.6665,14.407399000000002,14.926399000000002,145,173,125
-7.4071,19.8542,9.7295,127,176,119
-8.260399999999999,18.014499999999998,10.6739,254,253,254
-10.895100000000001,20.392799,13.915201,192,205,190
-9.765500000000001,17.6182,9.886000000000001,135,179,78
-13.743300999999999,14.038900000000002,14.941201000000001,131,163,88
-8.889800000000001,14.941099,15.8034,116,139,54
-9.8733,19.486600000000003,14.502899,128,175,124
-7.8525,21.251699,8.5845,84,140,45
-9.706199999999999,17.5712,10.4907,125,170,102
-9.7988,22.192501,11.9747,143,180,104
-8.146,18.723300000000002,7.713100000000001,121,168,94
-14.3622,13.4578,14.937700000000001,156,182,106
-7.1649,23.122901000000002,17.735200000000003,193,216,160
-9.184199999999999,17.758401,14.175899,148,117,86
-9.4772,16.864599,10.946,130,169,116
-9.3961,18.941,14.813100000000002,131,182,109
-10.1685,21.192101,13.4083,159,185,143
-12.7001,16.557699,19.2589,179,194,137
-8.8123,19.117700000000003,6.2626,122,181,85
-7.2895,21.0086,9.5516,123,168,104
-7.968699999999999,19.404601,18.058001,201,199,169
-11.349,16.747400000000003,16.9965,176,191,148
-14.306199999999999,16.509899,19.7935,152,186,110
-12.1823,15.1256,15.399600999999999,111,165,125
-10.4565,16.916899,8.1376,119,156,85
-8.3177,17.158701,14.2042,148,171,113
-6.3254,22.092301,17.6182,179,215,144
-7.2557,20.200900999999998,9.625,138,182,129
-11.043,20.8397,13.7153,172,198,148
-9.6678,16.672598999999998,9.997200000000001,115,161,72
-9.575899999999999,15.8355,14.985899999999999,109,142,85
-8.4916,17.5779,13.434199999999999,245,241,227
-7.8016000000000005,21.253800000000002,9.2941,85,139,48
-9.0714,21.925800000000002,18.256700000000002,185,221,168
-11.7381,15.0814,15.5615,143,178,131
-7.3047,20.491201,17.971398999999998,163,195,137
-12.937899999999999,13.086498999999998,14.4005,124,160,103
-6.375400000000001,22.838200999999998,17.380499999999998,185,221,142
-13.844600000000002,13.7436,14.7513,131,165,92
-8.0069,15.786900000000001,15.454300000000002,255,249,234
-11.1129,16.6527,16.786601,170,186,126
-10.2614,17.5991,8.1479,109,138,61
-13.667399999999999,16.336100000000002,19.807599,188,206,146
-7.7078999999999995,20.565701,9.9313,148,169,130
-11.5748,13.783698999999999,15.4039,217,218,181
-10.4021,22.540499,12.473099999999999,171,192,142
-9.768699999999999,22.2771,11.3798,148,158,168
-8.776,18.9821,18.392500000000002,167,200,147
-9.2523,20.133599999999998,13.717799999999999,130,168,123
-9.2259,20.9097,12.728800000000001,127,163,99
-10.535400000000001,17.1703,7.9041,97,149,60
-8.4202,17.026,14.269701000000001,133,176,128
-8.402800000000001,16.061600000000002,15.255099999999999,133,146,90
-10.066600000000001,17.875100999999997,8.7974,96,150,59
-10.0117,17.5579,16.499899000000003,183,130,110
-9.1274,17.4741,11.3621,157,188,141
-15.0599,16.3918,19.557001,147,186,108
-9.771199999999999,17.430200000000003,9.691600000000001,174,177,88
-10.7522,17.3923,18.712999999999997,214,212,190
-11.3416,15.3762,15.759498999999998,157,191,150
-9.3788,16.3849,10.7033,84,83,82
-8.5586,18.293200000000002,6.7675,24,24,24
-9.4808,16.4285,14.601301,120,143,108
-10.0594,22.6336,12.056899999999999,104,156,84
-8.869399999999999,16.2765,14.4344,119,157,82
-8.8597,20.397100000000002,12.688000999999998,154,170,136
-9.4376,21.3048,12.540900999999998,117,159,100
-9.4525,18.751299,14.838999999999999,125,190,102
-11.4099,14.354700000000001,15.521700999999998,118,162,87
-7.8116,21.432000000000002,18.110599999999998,160,197,143
-8.6176,19.340999,5.9503,71,83,48
-12.373000000000001,13.484599999999999,15.0313,126,161,102
-6.7619,22.879601,17.498299,173,197,121
-13.741200000000001,14.3876,15.3551,165,182,120
-10.1938,17.5593,17.625301,250,253,255
-12.629399999999999,15.222301,15.7654,149,177,110
-8.7766,17.8647,11.2763,255,254,254
-10.1052,22.125700000000002,12.5055,132,165,104
-10.581,17.3687,18.1979,192,188,159
-8.776200000000001,20.1542,13.077401,164,179,129
-7.0142999999999995,21.2394,7.9407000000000005,96,140,75
-9.6697,16.7705,9.997499999999999,111,156,73
-9.0479,16.7603,14.105400000000001,121,150,85
-12.3238,14.582799,15.182100000000002,121,157,102
-12.670100000000001,13.695699999999999,14.733499,122,152,87
-14.0062,13.997599,15.085299,154,177,128
-12.773499999999999,17.484599,18.7314,146,174,130
-10.5375,23.2941,12.0699,143,178,109
-9.7925,16.6766,9.5609,119,163,91
-8.9413,20.4941,12.779800999999999,109,155,94
-13.193299999999999,14.838899999999999,15.797301,144,173,101
-9.7618,18.676899,18.511400000000002,168,211,136
-9.6224,22.0085,11.562,93,114,58
-8.0314,18.2687,10.0411,104,71,56
-7.1499999999999995,21.310601000000002,7.7339,93,135,64
-6.464799999999999,22.628899999999998,17.4595,178,215,144
-10.355,21.3889,13.424900000000001,148,183,140
-8.5182,21.4267,18.228801,166,194,138
-8.713799999999999,19.0254,6.561400000000001,112,174,85
-11.6427,13.7741,15.4139,179,194,145
-10.6363,22.284301,12.989600000000001,130,179,84
-8.4246,19.977801,18.267500000000002,163,201,148
-10.839699999999999,16.3398,16.395599999999998,163,193,141
-9.8673,17.876001,9.4922,98,145,69
-11.1182,14.9451,15.675899,130,175,109
-14.2728,12.681799999999999,13.7941,243,246,241
-13.722301,16.825599999999998,19.542199,142,183,109
-9.560599999999999,18.1795,10.5914,97,109,70
-10.578999999999999,16.533101,16.5031,180,195,136
-8.426400000000001,18.994699,7.132,114,157,89
-10.3319,18.494099,18.2014,253,255,254
-9.6956,18.066899,10.001100000000001,108,158,77
-7.526,23.165201,17.8822,253,253,253
-7.015499999999999,21.132401,8.6442,82,140,52
-12.425,17.3325,19.310299999999998,148,191,132
-14.075299999999999,12.964401,14.169899999999998,188,202,151
-11.5805,13.952200000000001,15.484200000000001,152,171,113
-13.420001000000001,13.921,14.4539,205,212,207
-13.034999,13.1329,14.3131,126,158,99
-9.5988,19.0524,14.688499,137,180,108
-7.6926,21.247,9.539200000000001,70,125,52
-8.7369,14.621601,15.526198999999998,187,189,179
-9.4969,19.045199,14.724198999999999,137,180,117
-10.4924,16.687299,16.5794,173,191,129
-7.5644,19.7758,17.841201,227,208,177
-11.875399999999999,16.1109,16.375500000000002,154,185,140
-11.7385,15.650500000000001,15.8356,123,176,110
-9.003400000000001,19.5897,14.024000000000001,129,169,103
-7.976,22.5871,18.1113,177,210,151
-9.2697,17.2637,11.2937,155,184,142
-8.879,17.3096,11.3088,36,56,50
-8.433200000000001,18.9449,7.1795,132,179,102
-12.0424,16.2516,16.594701,160,180,118
-7.396999999999999,19.2592,9.711300000000001,156,195,140
-14.522301,16.743199999999998,19.412599999999998,129,175,97
-13.1669,16.771799,19.685499,155,192,139
-11.0214,15.0383,15.6775,142,176,126
-9.628,16.9211,10.4447,114,151,81
-10.0868,19.5898,18.07,168,211,177
-11.1851,21.5142,13.444,61,79,44
-8.609,17.0237,14.107800000000001,103,133,84
-7.954899999999999,21.479601000000002,18.1665,167,200,154
-8.451500000000001,16.7584,14.5016,113,132,121
-10.3958,16.8816,16.963901,242,244,234
-9.8523,21.9421,12.469800000000001,129,169,93
-8.8826,17.967699,12.708101,126,145,70
-7.973800000000001,18.6271,7.9106,124,166,112
-14.402699,12.4421,13.7015,195,203,167
-10.841000000000001,15.887100000000002,16.048499999999997,164,193,156
-9.5174,18.9487,14.746799999999999,130,188,103
-10.587399999999999,23.3505,12.029399999999999,160,190,116
-8.8902,15.937100000000001,14.621398999999998,108,144,66
-10.2688,22.634,12.227,168,191,135
-9.0474,19.145699999999998,14.530498999999999,236,235,222
-9.6248,16.982301,10.5977,131,168,90
-9.862400000000001,16.229499999999998,9.4374,124,172,83
-13.436799999999998,14.807200000000002,16.128999999999998,137,170,102
-9.6219,17.1675,10.7513,116,156,81
-14.396600000000001,12.631001,14.394499,212,219,191
-7.243099999999999,21.253601,8.3963,76,136,51
-6.9009,21.989501,17.672899,178,218,162
-9.893,22.505,11.834999999999999,143,179,108
-10.32,22.0934,12.761800000000001,135,167,86
-14.261199999999999,16.537599,19.7585,141,180,101
-10.2015,20.4247,14.0103,135,176,121
-9.5042,19.503701,14.487,122,160,111
-7.1502,21.171100000000003,9.031500000000001,73,133,51
-9.519400000000001,15.4403,15.2807,110,134,55
-7.6941,21.2588,8.161200000000001,77,105,63
-10.2333,21.5123,13.1937,170,189,144
-10.2751,17.3951,16.887499000000002,160,171,112
-12.8803,17.003,19.5215,157,194,135
-11.2937,15.298398999999998,15.7334,161,190,150
-6.4152000000000005,23.3851,17.1993,202,216,161
-10.803899999999999,22.581300000000002,13.062199999999999,124,179,76
-11.9793,16.122,16.4179,160,189,142
-13.218399999999999,16.768999,19.6936,156,194,144
-9.5157,17.7457,11.3751,124,172,115
-9.6694,17.920201,10.2407,106,158,85
-10.3223,17.556299,17.818099,250,253,255
-6.7802,21.085601,8.2224,72,136,57
-6.9158,22.8899,17.593500000000002,171,196,139
-9.0712,20.335798999999998,13.303999999999998,129,165,111
-8.4729,16.1441,15.0886,200,202,185
-6.5444,19.6895,9.2143,115,141,89
-6.3447000000000005,20.6094,9.2048,126,176,96
-10.2562,17.4839,17.1147,206,146,109
-7.4016,19.8028,9.728299999999999,130,185,129
-7.2034,20.320199,9.5838,133,181,124
-8.0221,22.7259,18.0865,191,225,160
-9.361899999999999,18.182001,18.6766,177,199,166
-6.525799999999999,20.309199,9.317,129,170,117
-9.897,21.867900000000002,12.598400000000002,123,169,105
-9.126900000000001,19.984201,18.285599,168,209,158
-13.360099,12.590699999999998,13.971300000000001,154,183,137
-6.697,20.824599,9.3114,132,177,105
-14.119799,16.236,20.166600000000003,238,250,254
-12.5311,14.345101,14.979701,128,165,111
-8.2716,20.082401,18.253601,166,203,149
-11.9765,16.3177,16.9332,155,188,106
-13.5878,17.243101,18.8428,140,168,107
-12.322,17.6734,18.6997,242,249,255
-9.757399999999999,21.287300000000002,12.9774,132,175,121
-10.8763,20.355,13.919200000000002,144,162,137
-13.263801,16.290499,19.445001,142,161,108
-12.3658,16.736101,19.2314,191,211,161
-9.0443,17.9764,12.9472,142,162,75
-9.8464,17.7572,9.513,99,142,74
-9.5438,20.8951,13.1762,141,177,133
-6.7194,22.9913,17.5035,174,202,151
-10.9899,15.7639,16.017899999999997,166,199,164
-11.8613,17.0761,19.1791,180,210,160
-6.0511,20.746100000000002,9.026,112,123,103
-13.6279,17.075599999999998,19.303600000000003,133,175,119
-10.5127,22.881999999999998,12.5175,161,186,134
-8.111799999999999,19.255300000000002,7.0489,143,183,113
-10.7988,20.843600000000002,13.8586,132,180,112
-6.4333,22.4362,17.521800000000002,174,215,151
-8.9687,22.141799000000002,18.279199,203,225,189
-12.8923,15.3872,16.249,148,177,126
-8.5529,17.893399,12.359399999999999,148,114,108
-14.2867,13.684199999999999,15.0526,158,185,122
-6.5451999999999995,20.925801,8.139000000000001,109,140,101
-8.7561,18.7718,6.6068,115,170,80
-8.6077,20.771299,18.266401,165,205,159
-9.8596,16.3219,9.4448,123,171,89
-8.457,14.927299,15.627099999999999,138,167,107
-7.653899999999999,19.767599999999998,9.880600000000001,133,167,127
-8.9046,17.834499,13.399699000000002,135,95,76
-10.037600000000001,16.182099,9.0497,130,170,90
-6.8634,22.973399999999998,17.598300000000002,171,195,138
-7.8816,19.4997,18.088999,214,219,228
-7.799799999999999,19.210701,9.8571,139,168,132
-11.6379,16.500300000000003,16.8942,160,188,112
-10.5956,23.238701,12.283900000000001,168,191,115
-9.9839,21.306001,13.096499,97,147,88
-9.8482,16.5804,9.468,120,168,101
-8.5999,14.896899,15.7536,135,163,105
-11.3375,16.7275,16.955000000000002,168,187,121
-9.0351,20.6578,12.7349,121,167,114
-12.922998999999999,17.011000000000003,19.5278,147,188,120
-12.1528,17.6505,19.041900000000002,150,185,125
-9.8033,19.603901,14.3879,137,175,116
-9.8392,17.720801,16.107599,250,254,255
-8.8552,15.9867,14.712700000000002,112,160,154
-9.5143,17.8688,15.199098999999999,254,254,253
-7.5135,21.061,9.6731,128,165,100
-10.4949,16.6334,16.497,179,189,134
-9.5733,19.2342,18.39,157,202,153
-8.5002,18.369301,6.9944999999999995,106,159,84
-13.043299,14.442400999999998,14.9002,120,157,72
-7.0731,19.9238,9.5734,148,188,134
-9.7494,22.150201,11.4791,151,159,135
-9.765799999999999,15.445900000000002,15.485001,252,244,223
-6.5244,23.3739,17.2952,199,210,157
-7.217899999999999,20.136000000000003,17.7972,233,236,229
-9.557699999999999,17.6889,15.1609,181,144,135
-13.722599999999998,16.4629,19.945399,188,207,176
-11.0321,20.702299,13.7354,251,253,253
-9.583400000000001,16.4657,10.394200000000001,144,164,113
-9.5532,17.5901,11.2856,135,173,120
-10.566,16.621099,7.740900000000001,88,125,59
-13.8611,17.0342,19.2514,148,184,126
-7.1494,21.209601,8.4443,83,143,51
-9.0781,17.961299,12.9647,144,165,80
-13.988900000000001,14.2868,15.286499000000001,133,163,88
-10.0268,17.957801,8.6366,89,120,67
-6.4223,22.9406,17.397401000000002,185,217,124
-9.6696,15.883499,14.971100000000002,110,146,78
-9.3146,16.6024,14.393599000000002,117,153,101
-14.008699,16.811899999999998,19.472900000000003,145,180,107
-9.8212,16.707900000000002,14.183401000000002,255,253,250
-13.2324,14.4591,15.030999000000001,119,159,69
-8.9266,19.831,18.2751,172,206,147
-12.728900000000001,15.475,16.206899,160,186,134
-11.0709,21.4017,13.5919,157,202,142
-9.3755,19.659001,14.2975,121,167,118
-9.0687,21.635299999999997,18.268199,171,213,164
-7.0653,20.835499,17.873998999999998,160,194,115
-12.571399999999999,16.4759,19.085599000000002,150,175,114
-8.1024,20.404001,18.223,150,191,116
-12.1979,13.588201,15.1614,126,164,96
-8.9512,19.7073,13.8423,142,168,108
-13.1934,13.192999,14.2635,136,168,115
-12.494900000000001,16.187499,16.5976,160,187,129
-9.1754,19.430600000000002,18.3459,181,216,157
-14.8661,16.5599,19.484199999999998,135,143,113
-9.3671,16.0413,14.789499000000001,109,149,89
-7.8968,21.212199000000002,8.9895,98,139,69
-15.1913,16.447899999999997,19.431201,155,188,123
-8.8675,19.686899999999998,18.3129,168,209,154
-9.1111,15.098,15.4855,178,202,148
-8.5149,17.9066,11.2385,255,244,238
-6.3513,20.9049,8.7036,72,135,46
-12.435599999999999,16.9193,19.4221,180,201,148
-8.3736,22.534299999999998,18.141500999999998,191,220,161
-7.4749,19.9417,18.0181,247,251,254
-7.900799999999999,21.2212,8.844299999999999,104,154,59
-10.1228,17.5127,17.241099,252,252,255
-10.537199999999999,20.304,14.1241,130,176,101
-9.4826,21.316399999999998,12.5928,127,165,112
-10.0726,16.075300000000002,14.768501,242,248,254
-10.549999999999999,17.3774,17.7476,253,254,254
-8.5107,17.0717,14.153799,128,172,108
-10.120899999999999,23.182499,11.3759,161,183,103
-12.4777,15.622599000000001,16.161899,173,186,133
-6.8092,19.3738,9.2878,116,128,87
-9.538,21.5056,12.3686,122,149,87
-10.481,16.520999,8.09,108,155,84
-9.086500000000001,19.9494,13.7439,155,185,136
-11.0831,15.337200000000001,15.739600000000001,142,179,129
-9.7401,17.3792,10.139199999999999,185,153,114
-14.399500000000002,14.0435,15.334700000000002,155,182,117
-8.2698,19.6334,6.1997,62,62,70
-7.4904,20.365099999999998,9.7534,134,167,124
-10.9927,16.349401,16.4361,160,195,142
-14.479600000000001,12.787201000000001,14.592101,249,247,230
-10.471400000000001,16.381899999999998,7.956100000000001,91,104,75
-10.3133,16.1137,8.3382,31,32,29
-8.8961,17.927399,13.337499999999999,220,216,204
-14.072799999999999,16.7027,19.5755,148,179,100
-6.0928,20.313799,9.0662,134,165,137
-12.7854,15.6914,16.4267,167,191,160
-8.281600000000001,19.7339,18.2796,168,199,144
-13.6187,16.658799,19.7834,138,178,118
-7.2970999999999995,19.076999999999998,5.4489,156,150,131
-9.9758,18.4416,18.539301,171,212,151
-13.062700999999999,17.3832,19.089501000000002,146,181,120
-7.590199999999999,20.159299999999998,9.8547,129,163,108
-8.6691,22.509401,18.127399999999998,255,255,255
-6.9482,22.630399,17.6166,156,195,118
-6.2427,20.771401,9.106200000000001,130,164,101
-6.216,20.849,8.6869,72,135,50
-11.289299999999999,16.398001,16.5884,160,191,137
-10.3489,22.4491,12.4257,164,181,122
-9.6817,20.837,18.052799999999998,166,210,171
-10.2207,19.2894,17.9557,254,254,254
-13.883799,13.0375,13.998700999999999,152,178,120
-12.636500999999999,14.234699,14.8984,140,169,117
-8.3657,17.276099000000002,14.061098999999999,153,166,117
-8.5219,16.930300000000003,14.266200000000001,110,161,110
-6.2708,20.0212,9.1176,105,129,108
-11.233,15.9576,16.129099999999998,161,197,167
-14.236799999999999,13.6301,14.9552,162,188,127
-11.1922,15.5981,15.881599,160,190,149
-9.7568,16.6795,9.632200000000001,115,155,87
-11.1104,22.1404,13.237098999999999,126,184,120
-8.2895,15.8629,15.3457,138,167,101
-7.727100000000001,20.915300000000002,9.8621,138,173,117
-8.6728,19.475,18.368599999999997,165,202,155
-8.562899999999999,22.031,18.2354,176,210,155
-12.0503,15.379999999999999,15.613399,139,168,98
-7.7113000000000005,21.626499,18.037,163,196,139
-10.104000000000001,15.9134,15.0066,248,251,255
-7.8134999999999994,21.9779,18.0539,171,203,164
-7.077400000000001,21.7397,17.7806,176,213,160
-9.1285,17.1073,11.2151,155,183,148
-8.380799999999999,16.369,14.886899000000001,98,133,59
-6.8058,23.334099,17.519199999999998,242,242,222
-8.869100000000001,20.135801,18.2822,165,201,155
-10.216,17.355099,16.7459,190,201,165
-11.9895,17.6935,19.053499,150,187,117
-6.2611,23.09,17.308401,194,226,156
-10.4614,16.676,8.137500000000001,99,149,69
-8.8695,21.5258,18.2906,166,205,132
-7.1509,21.1463,9.3859,87,123,55
-8.020199999999999,21.740299,18.137001,176,205,162
-9.6599,17.965600000000002,11.2925,149,149,140
-13.872698999999999,16.592100000000002,19.806099999999997,138,179,106
-8.165600000000001,19.1844,7.1221000000000005,136,175,115
-7.831200000000001,18.7913,9.7567,97,97,68
-9.9396,17.5841,16.3133,195,157,145
-11.4367,14.436499999999999,15.519799,119,164,86
-9.0167,20.038700000000002,18.2878,160,199,155
-8.4411,18.8069,7.187499999999999,114,173,85
-9.6703,15.420499,15.5215,144,142,82
-13.2413,13.3808,14.290801,137,166,111
-10.9448,14.7871,15.6578,225,217,199
-7.7799,21.5368,18.0848,153,189,134
-14.2719,16.9937,19.0999,146,178,117
-9.2655,15.362200000000001,15.157399999999999,116,142,66
-7.9755,19.828001,18.185000000000002,165,197,146
-6.5266,20.359099999999998,9.3109,129,174,118
-6.9519,20.5175,9.4569,133,187,115
-7.8980999999999995,18.2457,9.964,136,88,64
-13.0907,14.6448,15.245099000000002,163,183,117
-8.874600000000001,14.798599000000001,15.430699,244,244,241
-8.5151,17.8359,11.3628,116,115,100
-9.5142,16.2771,10.3331,177,195,158
-8.5644,21.732599999999998,18.2285,172,206,154
-7.514600000000001,21.287498999999997,8.7813,65,131,45
-12.1536,15.554499999999999,15.878300000000001,162,183,114
-8.9215,16.6917,14.0864,103,144,71
-13.4848,13.141499000000001,14.1541,153,176,131
-8.5374,15.223999,15.438201,103,153,59
-12.625299000000002,15.6195,16.265699,165,186,139
-10.3482,21.498901,13.329100999999998,156,185,140
-10.5277,23.067901,12.2838,168,197,124
-9.411999999999999,21.587899,11.8807,134,170,108
-12.033000000000001,14.133800999999998,15.343399,140,177,130
-11.7889,14.680399999999999,15.4476,145,181,130
-8.7128,18.628,6.6611,110,169,78
-10.049800000000001,16.445899999999998,8.9932,105,157,72
-10.1215,18.6297,18.352899999999998,147,188,139
-9.6815,17.5703,10.6933,112,157,95
-8.5272,16.2873,14.8739,105,141,78
-8.7183,18.925798999999998,6.6536,122,177,90
-8.7283,15.445299000000002,15.1838,73,114,37
-11.3156,17.320301,18.9357,196,220,146
-10.1453,22.587699999999998,12.0676,168,188,124
-9.9004,19.105100999999998,14.6951,131,179,125
-10.1572,16.864599,8.622100000000001,108,157,84
-9.2695,18.534200000000002,18.563499999999998,163,199,155
-10.8621,17.232899,18.6232,115,113,73
-10.8449,16.227899,16.2994,165,191,144
-9.109200000000001,19.3918,14.320200999999999,149,179,134
-10.306700000000001,20.8351,13.764000000000001,140,172,121
-13.049199999999999,15.714701,16.5214,144,194,137
-6.796,21.043899999999997,8.7973,85,147,49
-11.342099999999999,16.646899,16.894799,187,200,152
-12.1326,13.8873,15.2421,133,171,126
-12.2166,13.777301,15.136901,128,167,107
-11.635299999999999,14.280598999999999,15.450101,143,178,122
-10.2384,16.632301,8.551300000000001,115,157,103
-8.831,19.809701,13.635000999999999,158,189,114
-10.5917,15.6774,15.857001,68,64,55
-8.7467,19.9075,13.447799999999999,156,176,126
-8.6051,16.842299999999998,14.2543,115,162,110
-13.552999,14.658399999999999,15.7801,167,192,142
-6.323099999999999,20.7682,8.142900000000001,45,54,45
-14.521,16.3774,19.943701,142,159,98
-7.609299999999999,18.488,8.0998,94,75,68
-9.9393,22.6519,11.4553,170,207,144
-10.1636,21.7751,12.7637,161,180,113
-8.9056,17.7853,13.501199999999999,165,123,106
-8.4897,17.9344,11.3454,122,106,101
-11.8216,15.732199999999999,15.698799,238,247,255
-13.0411,15.002599,15.9054,159,183,126
-13.2715,17.313699,19.088399,147,182,124
-12.0953,15.028299,15.440599999999998,133,168,123
-11.3864,14.486699999999999,15.540399999999998,117,165,88
-9.0989,20.7004,12.773301,129,170,127
-8.6783,19.2885,5.898,72,86,49
-9.5959,18.1247,10.930900000000001,53,53,44
-7.8489,21.240801,8.4976,85,127,51
-9.353499999999999,16.589499999999997,10.882200000000001,158,181,117
-10.3885,18.1973,18.517999,198,215,188
-14.4416,13.979299000000001,15.3172,164,191,126
-7.6537,20.5394,18.118100000000002,168,198,140
-8.6136,19.227099,6.4655000000000005,116,171,74
-9.178,17.8856,12.981698999999999,148,169,107
-15.240799999999998,16.448601,19.386201,208,223,180
-14.233299999999998,14.0441,15.243401,151,179,123
-8.9018,19.1609,5.9681999999999995,111,143,62
-9.6122,21.733200999999998,12.0639,143,169,98
-12.4738,15.012699,15.2927,153,173,111
-8.1138,22.0318,18.147101,174,207,148
-10.5974,20.578399,13.972499999999998,115,167,89
-8.7086,18.438099,6.521299999999999,26,27,23
-14.0774,13.2342,14.4062,173,190,129
-9.5775,20.7243,18.118699999999997,162,205,159
-6.7385,22.789299,17.499000000000002,185,204,129
-14.613301,16.4563,19.739,147,182,111
-12.769499000000001,16.5269,19.288801,190,205,150
-10.442,19.848499999999998,14.275098999999999,108,172,98
-8.1104,18.0741,10.342600000000001,184,175,176
-10.357,20.943998999999998,13.717299999999998,144,178,110
-8.774999999999999,16.045199,14.724499999999999,92,135,63
-13.7242,14.469199999999999,15.462600000000002,166,184,121
-9.6417,16.790099,14.249398999999999,140,173,141
-10.2485,20.579900000000002,13.919599,144,180,138
-10.4467,20.749699999999997,13.8743,137,175,118
-9.2095,21.0913,12.3306,128,159,100
-10.5963,17.197499999999998,7.610799999999999,40,33,40
-7.251199999999999,20.066300000000002,9.6259,137,184,122
-9.4344,20.950399,12.984601000000001,135,170,126
-12.4739,13.0395,15.036700999999999,138,162,106
-10.293099999999999,21.7406,13.1319,114,154,90
-12.979101000000002,15.812100000000001,16.508,185,199,138
-6.8207,21.172,17.7928,181,214,167
-13.888299000000002,14.6354,16.1038,173,192,142
-8.1988,18.768698999999998,7.6196,123,164,97
-12.796199,12.884599999999999,14.607999999999999,123,159,97
-9.858799999999999,19.412900999999998,14.5459,132,177,125
-8.5234,17.4934,13.6243,127,164,92
-13.178799999999999,15.437600000000002,16.479499999999998,162,199,172
-13.7661,17.1562,18.642400000000002,170,184,179
-8.8684,21.4331,18.288501,161,203,130
-13.8382,12.7422,13.8933,160,181,128
-9.4704,17.766700999999998,14.8352,163,123,97
-8.7181,20.7357,18.272801,160,200,145
-14.147601000000002,13.986899999999999,15.1531,155,185,137
-10.023200000000001,17.923801,8.9847,96,131,64
-9.999600000000001,19.949301,14.2378,128,172,109
-9.3992,19.618499,18.328500000000002,157,199,158
-10.3566,22.988500000000002,12.0796,141,174,103
-10.0521,20.0948,14.1719,132,175,129
-7.6534,21.0416,9.775599999999999,144,165,128
-10.195,19.1249,18.0884,162,196,154
-13.318799,15.473001,16.4589,138,144,101
-9.3639,21.288399,12.4687,123,163,104
-12.3995,15.200099,15.532499999999999,122,163,92
-13.1907,17.349701,18.8437,144,178,112
-11.6867,13.6415,15.3473,155,156,145
-8.4174,17.5045,13.645299999999999,221,224,206
-12.4133,17.621399,18.932,146,181,124
-10.2134,18.5295,18.3487,148,188,140
-9.418,20.1759,13.8043,142,173,132
-9.2986,21.633001,18.133399999999998,184,216,177
-8.605400000000001,20.2273,18.221401,171,204,143
-8.7659,16.682,14.117200999999998,109,154,66
-7.9216,21.7419,18.1091,171,203,159
-9.989099999999999,21.0979,13.284699999999999,117,158,96
-14.232600000000001,13.077199,14.501898999999998,165,183,130
-13.6342,14.530299999999999,15.5472,173,193,129
-9.7053,16.9498,13.978601,255,254,254
-8.1152,22.1404,18.1398,172,208,147
-12.2218,15.720300000000002,16.1128,151,180,132
-9.8574,22.4934,11.5734,158,194,127
-8.7812,17.8294,13.056899999999999,148,109,98
-9.2242,19.6275,18.3305,161,200,145
-11.8353,14.8369,15.461899,147,183,132
-7.842599999999999,20.435201,18.174799999999998,169,204,160
-9.0778,15.391399999999999,15.123798999999998,102,140,79
-9.7092,16.361600000000003,14.655299,106,138,74
-8.9497,20.7243,18.2754,159,201,146
-8.104,19.8304,18.2226,161,195,150
-10.576,17.0149,16.8449,134,156,110
-8.216099999999999,20.770399,18.236100999999998,169,206,138
-10.885200000000001,16.3335,16.4056,159,191,139
-7.3831999999999995,18.769699,6.1521,29,28,31
-10.8959,21.289501,13.696299,139,183,133
-12.633701,14.392800999999999,14.9367,145,174,127
-8.5015,17.8671,12.547600000000001,233,207,196
-9.8802,22.55,11.575299999999999,150,187,114
-9.657,17.9561,10.3512,114,160,94
-11.532499999999999,13.796499,15.3971,179,180,151
-9.825000000000001,17.922799,9.6469,102,158,71
-11.7883,16.238999,16.501099999999997,157,177,113
-9.8484,22.1421,12.2239,123,164,93
-13.5112,16.619,19.8428,151,184,133
-13.358501,14.6556,15.4899,188,197,140
-7.3807,21.1606,9.0172,91,106,107
-9.508600000000001,20.584901,13.471501,146,180,135
-8.3286,17.188901,14.173200999999999,141,152,106
-11.0857,15.948100000000002,16.1328,160,194,152
-13.2559,14.697800999999998,15.4383,184,197,141
-10.6623,17.382701,18.506999,204,203,144
-9.0496,20.5044,12.927800000000001,113,154,87
-9.2143,17.7811,14.240199,154,115,97
-9.0959,17.738099,13.999900000000002,225,223,201
-8.7743,19.9241,18.2528,177,215,157
-15.110201,16.5739,19.2855,244,250,254
-14.0296,12.285400000000001,13.6906,201,200,156
-10.2481,19.152001,17.9978,254,255,254
-10.129299999999999,18.5423,18.4145,153,192,148
-10.5572,16.1524,16.086100000000002,248,252,255
-9.427000000000001,15.9711,14.8586,122,151,80
-13.718399,17.180701000000003,19.042,144,179,121
-9.8508,17.168701,9.3306,111,155,81
-10.9474,22.4004,13.185699000000001,146,195,104
-6.463900000000001,22.889601000000003,17.408299,188,219,140
-10.1966,19.3822,17.995501,203,208,197
-9.235,17.9913,14.3562,254,253,251
-14.4967,12.2644,13.5291,242,235,223
-12.209399999999999,17.325699,19.2827,158,196,144
-10.277600000000001,18.5353,18.252701,188,202,169
-10.3385,17.745601,18.520400000000002,202,222,136
-8.372300000000001,19.7376,18.304799,165,203,144
-9.9037,16.3219,14.5583,162,168,139
-8.991100000000001,14.9188,15.661301,189,207,153
-8.5898,17.930201,12.4686,175,172,144
-9.8114,17.2272,9.4927,123,153,91
-7.5228,21.433701,17.9801,169,208,140
-8.605699999999999,17.659301,13.2264,162,192,108
-12.4183,15.815000000000001,16.2637,178,193,143
-11.3361,14.240300999999999,15.5689,143,158,106
-12.860600999999999,16.767401,19.599700000000002,170,196,138
-7.3999,21.262600000000003,8.795,66,127,48
-9.8714,17.613301,9.3937,112,148,95
-9.610000000000001,16.625801000000003,10.3969,114,151,78
-7.555000000000001,19.6178,9.8017,136,172,141
-11.0037,17.2473,18.7987,206,208,156
-9.0252,16.629601,14.216599999999998,92,131,65
-9.3929,21.4425,12.1418,131,163,102
-6.5592999999999995,20.9906,8.0517,69,121,48
-9.7545,21.59,12.7243,141,180,131
-7.9437999999999995,21.6842,18.128800000000002,168,203,154
-10.634599999999999,15.790900999999998,15.936300000000001,171,188,135
-8.229000000000001,16.431101,15.021399999999998,128,166,100
-14.2341,12.3198,13.620099,164,182,113
-9.904300000000001,16.627499,9.325700000000001,125,171,104
-10.8941,22.149999,13.2911,139,185,117
-8.5071,15.0258,15.523100000000001,99,151,57
-12.809499999999998,17.4559,18.6887,160,179,166
-8.487,16.434599,14.788200000000002,111,171,85
-9.220699999999999,15.154599999999999,15.5766,111,145,56
-7.918,18.5747,7.9602,56,72,61
-8.233,17.240401,14.138700000000002,236,241,235
-11.8277,17.0324,19.13,181,206,151
-9.2872,19.2633,14.5946,171,195,159
-9.6318,16.517699999999998,10.1823,116,163,85
-9.223099999999999,17.723,11.4471,137,179,135
-7.5754,20.182499,18.063000000000002,162,192,134
-6.5123,22.067299000000002,17.5814,179,219,157
-8.5185,22.567999,18.064,253,253,250
-11.788400000000001,16.075999999999997,16.310699,154,185,129
-13.581399999999999,13.442699999999999,14.230699999999999,135,166,106
-10.3313,23.6009,11.5469,141,177,93
-12.987401000000002,14.443301,14.7909,226,230,221
-10.4773,17.325699,7.8998,100,142,64
-8.9975,19.197699,14.429601,253,245,229
-8.773499999999999,17.565601,11.4154,151,191,165
-6.1373999999999995,23.3583,17.174201,212,220,125
-9.5859,18.257201000000002,14.911699,200,223,166
-14.383299999999998,12.851501,14.580499999999999,168,186,110
-6.9963999999999995,21.229100000000003,7.9509,90,129,64
-11.3474,17.418499,18.748701,245,251,255
-8.971,16.636400000000002,14.1719,93,130,60
-9.0402,19.4529,14.194401000000001,161,186,151
-8.1718,16.4882,15.0475,138,167,105
-14.871,16.3101,19.9219,208,225,202
-9.6006,20.488899999999997,13.6684,129,175,135
-9.7922,21.9069,12.2285,141,170,106
-13.1799,14.725401,15.3971,187,196,139
-9.1699,15.1006,15.9779,190,202,150
-8.9835,15.279599999999999,15.1307,108,147,71
-9.4765,16.075999999999997,14.808399999999999,111,152,96
-8.3667,19.1172,7.0106,109,166,97
-6.7014000000000005,21.048000000000002,8.2429,66,126,46
-8.5688,16.1814,14.932001,99,141,65
-10.0518,22.436598999999998,12.217400000000001,122,164,94
-6.158799999999999,22.7752,17.3971,196,227,175
-9.864,19.286101,18.291201,151,194,155
-12.11,13.5516,15.265699999999999,130,163,102
-12.897,14.4849,14.905,108,123,82
-9.2586,16.769999,11.200899999999999,243,236,226
-12.5741,13.777700000000001,14.8344,117,161,85
-8.5729,19.183500000000002,6.6174,104,168,71
-10.654900000000001,17.1021,7.5927,78,83,55
-7.42,20.632,18.041,173,202,150
-12.787201000000001,14.630599,14.995700000000001,133,161,85
-9.8594,17.664801,9.433900000000001,111,149,86
-9.8931,22.489201,11.7724,152,190,118
-8.5397,17.993499,12.2992,132,99,90
-13.875601000000001,13.317101000000001,14.318700000000002,181,195,143
-9.2353,19.5545,14.288898999999999,137,175,129
-11.8798,13.6289,15.374199999999998,168,189,145
-7.4269,22.935200000000002,17.925601,180,210,148
-7.323799999999999,20.028199,17.7834,212,211,189
-10.299999999999999,22.254199999999997,12.6219,142,174,118
-9.5107,18.090799,14.7948,249,254,254
-7.874299999999999,20.134801,18.1804,172,197,143
-11.7403,14.9315,15.4928,152,187,132
-14.552200000000001,13.392999999999999,15.0086,247,245,218
-9.8911,20.5975,17.863999,237,246,233
-7.195500000000001,21.232,8.4436,84,146,50
-8.272599999999999,21.4766,18.204698999999998,162,203,153
-8.7751,19.337699999999998,18.3872,169,205,163
-13.531899,13.283101,14.1875,141,171,119
-11.583499999999999,15.537799999999999,15.813801,153,187,140
-8.7028,15.5669,15.117601,98,145,72
-7.8166,21.0778,18.187800000000003,170,202,143
-9.4249,16.4848,10.685699999999999,150,182,132
-10.754,22.1966,13.1969,132,182,112
-8.917300000000001,20.24,13.259799999999998,105,160,86
-13.7886,13.239400000000002,14.1458,151,176,123
-9.614799999999999,20.581301,13.5655,152,185,140
-7.6671000000000005,21.3884,18.039399,174,207,134
-13.2888,14.484601,15.108099999999999,121,159,72
-9.1172,21.4783,18.2548,166,209,162
-7.0783,23.034800999999998,17.7038,182,204,148
-10.7357,16.130801,16.196001,173,199,159
-12.6524,13.882799000000002,14.7663,129,170,120
-8.522499999999999,22.5264,18.1401,232,235,226
-10.3769,17.8812,18.5344,197,218,136
-8.2727,21.7408,18.1923,168,207,155
-8.2675,22.587799999999998,18.138299999999997,192,221,163
-14.0095,16.273201,20.089199999999998,235,243,233
-10.2051,22.2316,12.4351,103,146,71
-8.8872,19.044,6.2199,121,179,89
-12.764500000000002,17.2675,19.3446,141,181,131
-8.8192,16.287399999999998,14.427499,101,141,60
-11.1342,16.416900000000002,16.5106,171,192,131
-10.9497,17.334899,18.8163,239,240,224
-9.9285,15.8216,15.127299999999998,176,182,181
-12.2438,15.950499,16.277599000000002,156,183,129
-11.9294,13.941899999999999,15.367199000000001,141,178,122
-13.688,13.779999000000002,14.650099999999998,128,163,95
-9.4415,21.5491,11.9292,148,182,113
-9.3991,20.090801,13.877900000000002,155,182,146
-10.345600000000001,18.590599,18.0893,250,255,255
-8.4152,16.5162,14.756399,107,160,91
-6.1941999999999995,23.0729,17.2943,196,222,139
-12.590699999999998,16.035800000000002,16.545199999999998,158,184,129
-8.9815,20.2564,13.291401,111,156,85
-12.5652,16.909299999999998,19.4812,167,192,137
-12.515999,17.390100999999998,19.261999,154,194,135
-10.8604,16.5445,16.6325,183,209,150
-10.4426,20.2622,14.1449,131,182,105
-11.303,14.149401000000001,15.612799999999998,254,254,253
-13.073700999999998,15.013399999999999,15.9179,180,196,136
-14.311001000000001,16.3579,20.133499999999998,161,188,107
-14.4394,13.1889,14.846200000000001,172,197,128
-12.674899,14.974599999999999,15.4594,169,189,121
-9.922,18.226300000000002,18.5977,163,207,142
-8.5598,16.2589,14.751001,95,133,48
-10.0281,20.23,17.797001,253,255,255
-10.1366,17.122200000000003,8.7012,105,152,83
-14.088999999999999,13.841000000000001,15.0419,161,189,138
-9.0222,16.3306,14.474799999999998,86,125,51
-13.116000999999999,16.912,19.578699999999998,150,189,134
-9.7917,22.0989,12.0206,146,183,90
-8.065,19.328699999999998,18.155099,206,217,199
-8.7155,17.771,13.197801,254,248,238
-6.768000000000001,21.884598999999998,17.6677,175,213,154
-7.7402999999999995,18.7657,9.7356,170,201,163
-8.9221,15.2979,15.133999000000001,88,124,52
-6.2993999999999994,20.8831,8.6306,71,135,49
-13.4211,12.8466,14.038400000000001,139,169,115
-10.5371,21.5977,13.3875,143,183,140
-6.889000000000001,21.1143,8.4425,79,139,46
