-5.8013,16.6523,28.4483,147.0,142.0,143.0
-8.5086,16.023899999999998,19.162000000000003,157.0,185.0,145.0
-6.3008999999999995,20.1312,17.6602,253.0,253.0,253.0
-1.5765999999999998,18.465500000000002,26.486900000000002,254.0,247.0,244.0
-9.169599999999999,14.1655,19.3942,149.0,177.0,130.0
-9.466199999999999,15.1563,19.8076,162.0,184.0,157.0
-4.9762,20.122899999999998,26.934200000000004,255.0,255.0,255.0
-8.4407,16.4634,19.1812,156.0,183.0,133.0
-1.4152,18.9143,26.887800000000002,146.0,145.0,128.0
-6.3328999999999995,20.7552,18.0824,202.0,178.0,172.0
-5.3610999999999995,22.4231,17.4738,160.0,167.0,146.0
-4.2074,19.8349,31.5682,253.0,254.0,255.0
-4.6584,20.4677,15.034,116.0,166.0,109.0
-7.603699999999999,12.954699999999999,13.2379,126.0,150.0,92.0
-7.713,18.5955,13.426499999999999,178.0,128.0,102.0
-8.339,15.060599999999999,18.834500000000002,158.0,186.0,146.0
-7.6405,18.4734,13.509699999999999,214.0,189.0,182.0
-0.8021,18.3699,27.7213,162.0,184.0,204.0
-5.1588,22.991600000000002,17.2333,231.0,245.0,255.0
1.1228,17.4088,26.1488,253.0,254.0,253.0
-7.3464,15.3767,13.0242,89.0,123.0,83.0
-4.2153,19.6235,31.8141,169.0,164.0,172.0
-10.038,12.9801,19.8751,174.0,194.0,154.0
-7.7811,17.1095,13.6141,95.0,137.0,73.0
-7.505000000000001,12.0543,13.3568,118.0,129.0,106.0
-10.321,18.617900000000002,24.3535,157.0,171.0,136.0
-9.775300000000001,20.5674,23.924200000000003,173.0,194.0,147.0
-10.5348,20.369899999999998,23.7411,157.0,180.0,101.0
-4.3675,20.1076,28.618700000000004,254.0,239.0,234.0
-7.7269000000000005,13.3194,13.570099999999998,97.0,147.0,92.0
-6.2829999999999995,19.7395,24.2401,253.0,255.0,254.0
-0.7303,17.9891,25.8903,251.0,241.0,237.0
-9.5731,18.665499999999998,24.4376,154.0,170.0,135.0
-1.9361,19.4051,27.8827,174.0,169.0,130.0
-8.6081,18.3691,7.8275,76.0,67.0,64.0
-8.9022,14.865400000000001,19.2799,169.0,186.0,140.0
-7.765,18.5695,13.1404,171.0,110.0,76.0
-6.0923,20.577,15.399899999999999,128.0,171.0,120.0
-10.5324,18.929399999999998,24.239,158.0,176.0,135.0
-5.9607,19.470499999999998,23.374200000000002,170.0,155.0,119.0
-7.51,16.717399999999998,18.0562,130.0,165.0,77.0
-5.6476,18.1558,29.5069,125.0,117.0,121.0
-5.4516,22.6142,17.2365,255.0,254.0,255.0
-1.6832,19.0407,26.833800000000004,187.0,180.0,177.0
-5.7136,17.5682,29.1368,142.0,129.0,126.0
-11.121300000000002,19.6101,23.812,130.0,166.0,84.0
-8.6961,14.6173,18.9748,164.0,186.0,148.0
-8.6163,15.6962,19.200400000000002,155.0,180.0,129.0
0.5196000000000001,18.0564,25.9888,182.0,177.0,164.0
-4.792,20.220299999999998,27.969300000000004,177.0,164.0,155.0
-0.9489,18.4201,27.8198,186.0,215.0,241.0
-0.0951,18.0505,25.673800000000004,161.0,160.0,116.0
-4.5765,20.2533,29.3378,251.0,254.0,254.0
-2.9803,22.419900000000002,12.887,144.0,184.0,114.0
-6.360499999999999,19.25,20.0743,247.0,248.0,249.0
-12.067,19.411900000000003,23.7721,124.0,146.0,65.0
0.6922,17.846899999999998,26.6732,171.0,173.0,161.0
-5.8999999999999995,19.368199999999998,23.3003,251.0,255.0,255.0
-7.3996,18.310499999999998,17.7927,249.0,251.0,255.0
-5.5703000000000005,16.6169,29.3364,131.0,128.0,128.0
-6.0262,19.4697,23.076900000000002,174.0,170.0,127.0
-7.8642,15.0644,18.4877,240.0,246.0,254.0
-1.1018999999999999,18.881999999999998,27.2016,139.0,146.0,103.0
-9.2815,14.758199999999999,19.6454,139.0,164.0,113.0
-1.7087,19.3334,27.3147,178.0,169.0,138.0
-5.6413,18.892500000000002,29.797400000000003,251.0,252.0,255.0
-7.9487000000000005,17.048099999999998,18.5715,142.0,175.0,123.0
-6.1711,19.437099999999997,22.3827,176.0,176.0,127.0
-1.6448999999999998,19.1127,27.969500000000004,177.0,181.0,155.0
-4.8911999999999995,17.4124,30.031000000000002,250.0,251.0,252.0
-5.7700000000000005,19.8553,15.7248,126.0,171.0,110.0
-6.489300000000001,19.1737,20.833,254.0,253.0,251.0
-1.9688,18.4466,28.081899999999997,235.0,247.0,253.0
-5.6832,22.3832,17.8754,170.0,178.0,189.0
1.1606999999999998,17.5574,25.244100000000003,153.0,158.0,140.0
-7.4645,14.562700000000001,13.1769,128.0,150.0,98.0
-7.399699999999999,14.421700000000001,13.2887,110.0,163.0,116.0
-5.0919,19.9765,27.0104,173.0,165.0,126.0
-0.3808,18.395500000000002,26.4124,160.0,154.0,136.0
-4.5258,19.3245,30.3234,172.0,170.0,167.0
-12.5251,19.426299999999998,23.536,136.0,161.0,111.0
-7.6065,17.3273,18.2658,145.0,185.0,139.0
-4.743399999999999,19.7426,30.409999999999997,187.0,181.0,141.0
-6.3753,20.6571,18.0285,248.0,242.0,238.0
-10.2677,12.8105,19.8285,220.0,225.0,222.0
-8.2934,17.784,7.600899999999999,109.0,114.0,83.0
-7.230300000000001,19.0273,15.4353,247.0,250.0,250.0
-4.7654000000000005,20.3117,15.229000000000001,111.0,166.0,94.0
-8.147,16.4679,18.7728,139.0,179.0,113.0
-6.3149,19.1525,20.785400000000003,162.0,152.0,131.0
-2.9104,22.247700000000002,13.1158,254.0,254.0,252.0
-7.7413,16.3142,13.397300000000001,145.0,161.0,108.0
-5.5092,21.126800000000003,18.1564,208.0,196.0,163.0
-8.0841,18.4533,11.782399999999999,175.0,130.0,111.0
-0.2281,18.0413,25.7542,164.0,161.0,113.0
-7.447900000000001,16.3268,13.301599999999999,175.0,177.0,148.0
-6.3127,18.9813,20.4468,254.0,254.0,254.0
0.0167,18.1503,25.941399999999998,149.0,141.0,108.0
-10.1273,19.871,23.8997,160.0,186.0,139.0
-9.5374,13.412099999999999,19.6852,169.0,190.0,147.0
-7.2561,16.1739,12.895499999999998,95.0,122.0,122.0
-8.568299999999999,16.558600000000002,19.3048,164.0,191.0,151.0
-5.8179,15.7691,27.9273,201.0,192.0,189.0
-11.5754,19.6795,23.683,127.0,159.0,74.0
-9.3737,14.208499999999999,19.6998,146.0,176.0,122.0
-0.3372,17.8655,25.7673,241.0,231.0,222.0
-9.1235,15.8114,19.7014,171.0,190.0,153.0
-9.3295,20.069799999999997,24.0278,156.0,179.0,127.0
-2.8995,19.9564,28.2327,182.0,195.0,162.0
-4.6394,20.0527,30.020599999999998,255.0,254.0,254.0
-8.0342,14.8034,18.6341,139.0,177.0,116.0
-8.2002,13.123199999999999,13.9424,94.0,140.0,104.0
-1.8972,19.2187,27.070300000000003,147.0,148.0,124.0
-0.8824000000000001,18.0095,25.8973,254.0,249.0,245.0
-3.9329,20.2556,28.632400000000004,188.0,208.0,135.0
-7.6495999999999995,13.0639,13.5047,111.0,164.0,109.0
-6.329899999999999,19.4511,16.1454,254.0,255.0,253.0
-1.9266999999999999,18.8415,28.163100000000004,177.0,177.0,158.0
-3.6369,19.9608,28.591,183.0,189.0,132.0
-5.2557,22.5981,17.7485,147.0,132.0,115.0
-12.436,19.2474,23.810100000000002,218.0,217.0,210.0
-7.887099999999999,15.954099999999999,13.5212,127.0,156.0,109.0
-11.4353,20.1369,23.541999999999998,159.0,183.0,100.0
-7.3736999999999995,12.1925,12.987499999999999,126.0,142.0,99.0
-5.7008,17.054,28.636499999999998,129.0,125.0,126.0
-7.5936,18.529,14.1957,254.0,254.0,253.0
-10.9158,18.438399999999998,24.1491,211.0,211.0,205.0
-9.3435,13.5078,19.4911,157.0,189.0,139.0
-8.4662,14.840300000000001,18.8543,162.0,186.0,141.0
-7.6053999999999995,15.4689,18.4163,142.0,174.0,124.0
-5.319,21.137,18.19,217.0,185.0,156.0
-7.6157,15.306600000000001,18.455099999999998,148.0,177.0,152.0
-5.2882,21.235599999999998,14.544699999999999,92.0,136.0,66.0
-5.517799999999999,18.5714,30.186,139.0,131.0,134.0
-5.3713999999999995,22.323999999999998,17.5076,144.0,148.0,115.0
-2.7817000000000003,20.0614,27.582,244.0,239.0,237.0
-4.6701,20.2787,29.5833,242.0,249.0,255.0
-0.382,18.2587,26.1233,146.0,142.0,119.0
-7.801900000000001,12.515799999999999,13.5579,113.0,165.0,124.0
-10.1767,20.369300000000003,23.8366,168.0,186.0,130.0
-5.4598,17.5171,28.8515,233.0,225.0,224.0
-8.2719,19.5321,8.2041,89.0,122.0,59.0
-5.0573,20.0484,15.468499999999999,118.0,167.0,97.0
0.8921999999999999,17.3274,24.7505,204.0,199.0,143.0
-12.1692,19.159699999999997,23.932100000000002,133.0,163.0,131.0
0.9259999999999999,17.705099999999998,26.3457,172.0,178.0,172.0
-2.871,20.017699999999998,28.162599999999998,172.0,185.0,154.0
-7.5519,16.4173,18.219099999999997,134.0,173.0,113.0
-6.8265,19.2194,18.0687,207.0,188.0,187.0
-7.8576999999999995,12.8195,13.628000000000002,103.0,151.0,114.0
-4.9094999999999995,19.9039,30.2865,254.0,255.0,254.0
-6.4887,20.1078,17.5114,254.0,251.0,247.0
-4.916,20.7971,14.7207,102.0,156.0,80.0
-7.830900000000001,13.7685,13.6176,85.0,137.0,93.0
-9.679,20.0151,23.9512,164.0,187.0,143.0
0.9757999999999999,17.5895,25.090200000000003,184.0,175.0,118.0
-8.3314,16.716800000000003,19.0835,166.0,188.0,147.0
-1.2237,18.3477,26.2996,249.0,242.0,238.0
-0.089,18.2976,26.493499999999997,176.0,172.0,145.0
-5.504499999999999,18.6886,29.660700000000002,250.0,254.0,255.0
-8.07,19.5664,24.4789,166.0,196.0,150.0
-4.4926,19.9445,30.3278,253.0,253.0,255.0
-8.1035,13.070200000000002,13.8519,104.0,151.0,116.0
-5.5851,17.2774,28.6171,198.0,194.0,194.0
-4.6794,24.0628,17.4089,209.0,218.0,171.0
-7.697800000000001,17.3047,13.552800000000001,83.0,133.0,79.0
-5.3237,19.8962,25.6838,251.0,254.0,255.0
-8.343499999999999,14.2808,18.6114,219.0,221.0,211.0
-5.138199999999999,23.4736,17.3786,254.0,254.0,254.0
-8.982999999999999,14.4112,19.1433,172.0,192.0,145.0
-5.876,20.119400000000002,18.492,182.0,187.0,126.0
-6.407499999999999,20.6853,15.4452,221.0,226.0,215.0
-6.459,20.3027,15.6758,141.0,176.0,141.0
-7.2577,14.6594,13.0579,133.0,168.0,133.0
-5.622,17.9627,29.284399999999998,147.0,134.0,140.0
-8.041,16.2012,14.183200000000001,244.0,238.0,224.0
-3.7127,21.4867,14.0201,134.0,186.0,146.0
-7.881,16.6449,18.4389,185.0,199.0,151.0
-1.0877,18.5835,26.5053,158.0,157.0,149.0
-7.867699999999999,17.576900000000002,18.3892,138.0,168.0,108.0
-2.1169000000000002,18.5419,28.1377,194.0,206.0,203.0
-2.5957,20.0414,27.8883,174.0,178.0,143.0
-4.578200000000001,20.1916,28.5634,182.0,127.0,140.0
-9.4521,14.8532,19.768900000000002,131.0,159.0,105.0
-7.4119,16.448,17.9031,142.0,158.0,157.0
-7.846,19.470599999999997,24.554599999999997,175.0,209.0,158.0
-6.9434,18.5743,17.6949,247.0,252.0,255.0
-6.9368,18.6247,17.8492,248.0,252.0,253.0
-8.5781,14.5045,18.8582,153.0,179.0,124.0
-9.3239,20.013,24.035,165.0,186.0,130.0
-2.5802,19.8005,27.343600000000002,254.0,254.0,254.0
-7.6678,18.507299999999997,13.9244,249.0,233.0,220.0
-12.0237,19.328699999999998,23.837600000000002,114.0,145.0,67.0
-8.244,12.457799999999999,13.780100000000001,251.0,255.0,253.0
-5.4465,18.6332,30.265900000000002,144.0,140.0,144.0
-1.9327,18.6922,26.8934,238.0,185.0,166.0
-8.4742,19.7358,24.3,164.0,193.0,146.0
-9.7195,19.5992,24.068,150.0,178.0,124.0
-4.3238,20.893900000000002,14.667,141.0,187.0,133.0
-5.1133999999999995,19.896900000000002,15.575700000000001,147.0,171.0,128.0
-8.3876,17.4922,7.646100000000001,138.0,176.0,111.0
-7.495400000000001,14.4893,13.321,106.0,164.0,118.0
-7.591399999999999,16.310299999999998,13.391,127.0,153.0,105.0
-8.530899999999999,18.645999999999997,7.2783,102.0,138.0,57.0
-9.8688,14.474899999999998,19.9212,174.0,177.0,120.0
-8.6245,18.718899999999998,24.5456,161.0,178.0,145.0
-2.6353,18.617,28.3546,244.0,244.0,243.0
-2.7431,18.7061,28.381,223.0,223.0,213.0
-10.7797,19.5803,23.8533,123.0,160.0,76.0
-5.6552999999999995,17.6263,29.6273,147.0,143.0,151.0
-4.2447,19.6268,31.759700000000002,186.0,178.0,182.0
-6.0735,19.3057,21.4829,255.0,254.0,253.0
-5.1545,16.825000000000003,30.113,252.0,254.0,254.0
-5.0607,20.7929,14.6535,131.0,185.0,103.0
-5.015,21.489,14.0027,107.0,158.0,104.0
-7.8722,16.9909,13.7798,88.0,137.0,62.0
-8.1842,14.8674,13.9412,141.0,174.0,122.0
-4.8207,21.7813,17.9783,183.0,164.0,156.0
-5.2776000000000005,18.4646,30.2989,152.0,140.0,143.0
-5.4784,22.1071,17.568900000000003,116.0,118.0,104.0
-7.2406,17.8085,17.9777,152.0,177.0,136.0
-8.6256,18.737000000000002,7.3015,90.0,99.0,63.0
-8.3935,16.1633,19.038,155.0,181.0,133.0
-5.8281,16.0564,28.3362,175.0,174.0,185.0
-5.119,21.9973,13.5136,244.0,244.0,242.0
-7.8008999999999995,18.5443,13.425300000000002,202.0,140.0,94.0
0.5293,18.011,26.6849,149.0,152.0,129.0
0.1043,18.1933,27.1731,186.0,176.0,152.0
-5.8578,16.3368,28.0225,226.0,215.0,212.0
-4.8225,19.3226,30.4413,172.0,151.0,126.0
-8.2322,15.407599999999999,14.363100000000001,154.0,163.0,133.0
-5.1169,22.836000000000002,17.7307,255.0,253.0,254.0
-7.4361999999999995,13.4656,12.5017,254.0,253.0,250.0
-4.4673,22.0498,13.5621,104.0,174.0,89.0
-3.7359000000000004,19.6613,28.575899999999997,194.0,201.0,158.0
-3.5216,21.8886,13.605500000000001,124.0,176.0,122.0
-6.2133,19.2324,21.1617,177.0,159.0,129.0
0.9183,17.1736,24.481,254.0,242.0,232.0
-5.4091000000000005,17.7201,30.0205,139.0,131.0,135.0
-8.2242,18.4162,10.4916,139.0,97.0,86.0
-5.348,22.2548,17.8253,255.0,255.0,255.0
-8.272599999999999,14.178099999999999,14.330000000000002,224.0,223.0,201.0
-3.8707,21.8632,13.5782,126.0,177.0,101.0
-8.9863,15.8146,19.605,159.0,183.0,137.0
-11.3193,20.1206,23.5957,146.0,170.0,79.0
-2.8875,18.9069,28.357100000000003,248.0,229.0,216.0
-7.5769,16.9604,18.2375,188.0,205.0,176.0
0.24979999999999997,18.0363,25.7587,143.0,140.0,118.0
-1.4723,19.128,27.0293,156.0,155.0,137.0
-9.4744,20.6813,23.9699,181.0,192.0,162.0
-8.1435,12.7373,13.827300000000001,89.0,138.0,97.0
-7.5529,17.86,17.9013,249.0,251.0,255.0
-5.0973999999999995,17.732899999999997,30.220200000000002,146.0,137.0,140.0
-2.0396,19.423199999999998,27.290599999999998,163.0,165.0,151.0
-4.542800000000001,20.2027,29.371399999999998,255.0,255.0,255.0
-1.8866999999999998,19.3489,27.1992,167.0,165.0,145.0
-4.473599999999999,20.3373,28.284399999999998,250.0,255.0,255.0
-8.318100000000001,14.505399999999998,18.618299999999998,250.0,255.0,255.0
-8.0481,16.762,18.5788,142.0,163.0,91.0
-7.8169,17.2762,13.5899,162.0,174.0,106.0
-5.6975999999999996,17.5168,29.0487,116.0,111.0,108.0
-8.235199999999999,18.9727,24.532,166.0,188.0,156.0
-2.7881,19.711100000000002,28.295399999999997,177.0,168.0,125.0
-0.9844999999999999,18.7044,26.9905,163.0,157.0,127.0
-1.9122,19.4118,27.299400000000002,150.0,156.0,133.0
-3.3748,19.3965,28.536299999999997,183.0,194.0,168.0
-7.2427,14.4765,12.9941,108.0,154.0,117.0
-4.6427000000000005,18.2601,30.104300000000002,254.0,254.0,254.0
-5.3677,19.3512,30.4147,234.0,203.0,196.0
-7.6385,17.8628,18.291,167.0,193.0,171.0
-4.8215,18.0727,30.182199999999998,151.0,145.0,147.0
-7.5436000000000005,12.119299999999999,13.3121,115.0,142.0,91.0
-8.0302,16.4625,18.6495,137.0,175.0,108.0
-8.0126,18.5451,11.7782,159.0,103.0,81.0
-9.4741,18.3352,24.3819,171.0,177.0,156.0
-6.2173,19.9038,15.779399999999999,113.0,151.0,97.0
-8.6877,18.1482,5.6235,49.0,41.0,39.0
-7.350099999999999,16.7212,13.2404,175.0,173.0,159.0
-8.554200000000002,17.0868,18.9077,241.0,246.0,244.0
-7.502300000000001,17.0606,18.1725,139.0,169.0,129.0
-8.3552,18.1315,6.8011,84.0,63.0,57.0
-3.4863,20.4129,28.1539,250.0,246.0,255.0
-8.821,15.116399999999999,19.3,174.0,194.0,158.0
-5.808,16.4604,28.7424,142.0,137.0,138.0
-8.1688,15.5167,14.2379,108.0,152.0,100.0
-6.2308,20.5843,15.4486,127.0,170.0,111.0
-6.7316,19.1661,18.93,194.0,186.0,127.0
-7.9736,16.8811,14.0295,153.0,183.0,125.0
-7.6254,14.646600000000001,13.376199999999999,119.0,141.0,90.0
-6.6703,19.541700000000002,16.1049,149.0,177.0,111.0
-6.8088,19.1413,17.9878,183.0,173.0,188.0
-9.633,19.967299999999998,23.9709,163.0,185.0,138.0
-7.7093,12.4503,13.4849,95.0,154.0,101.0
-5.5947,17.3263,29.562500000000004,141.0,140.0,150.0
-4.8713,21.6945,13.818800000000001,132.0,175.0,140.0
-6.4804,19.0898,20.1339,187.0,166.0,146.0
-1.2328000000000001,18.9527,27.245,151.0,154.0,119.0
-0.6301,18.6026,27.592499999999998,174.0,171.0,157.0
0.2212,17.891299999999998,27.1764,164.0,162.0,143.0
-6.9981,19.389400000000002,16.6065,252.0,247.0,242.0
-3.8509,19.391,32.4195,253.0,253.0,254.0
-7.4596,12.5657,12.856000000000002,176.0,194.0,171.0
-8.039100000000001,15.109800000000002,18.641,144.0,177.0,118.0
-6.5318000000000005,20.4706,17.5216,253.0,248.0,244.0
-8.9768,18.1594,5.6791,79.0,65.0,66.0
-7.896,13.317799999999998,13.702,101.0,153.0,115.0
-1.2229999999999999,19.021,27.7045,156.0,156.0,126.0
-5.8775,15.6213,27.873900000000003,137.0,126.0,108.0
-8.0706,20.3705,24.2421,157.0,182.0,138.0
-8.6049,18.6487,7.2253,88.0,107.0,58.0
-3.888,19.9672,28.669099999999997,183.0,204.0,146.0
-9.7295,14.973,19.9698,197.0,188.0,166.0
-10.4213,20.1222,23.785899999999998,157.0,182.0,124.0
-4.8370999999999995,18.5348,30.313499999999998,150.0,147.0,146.0
-0.12769999999999998,17.9172,25.646400000000003,253.0,253.0,251.0
1.0584,17.3369,25.2041,254.0,254.0,253.0
-8.1138,14.8147,13.8059,141.0,163.0,111.0
-5.4233,18.3621,30.2006,172.0,173.0,186.0
-3.1672,22.1946,13.2685,137.0,179.0,115.0
-7.757600000000001,17.6194,13.7105,125.0,158.0,88.0
0.9272,17.7196,25.5262,202.0,204.0,153.0
-7.7303999999999995,18.4055,13.7329,203.0,177.0,161.0
-0.2817,18.1437,27.4091,166.0,162.0,151.0
-8.5838,18.2168,6.7682,109.0,72.0,55.0
-7.523000000000001,18.743299999999998,14.2289,197.0,173.0,168.0
-7.9661,18.532899999999998,12.2309,186.0,130.0,94.0
-1.0305,18.9195,27.645999999999997,170.0,172.0,149.0
-5.8277,16.4668,28.631,138.0,133.0,133.0
-2.9811,18.9527,28.349600000000002,253.0,241.0,235.0
-7.6168,13.6106,13.4767,107.0,157.0,94.0
-8.0346,18.4549,12.0738,185.0,136.0,114.0
-7.2313,15.3008,12.905800000000001,84.0,122.0,79.0
-6.8786,20.008100000000002,24.3837,157.0,179.0,128.0
-4.6399,18.243599999999997,30.122100000000003,253.0,255.0,254.0
1.0534999999999999,17.682000000000002,25.538800000000002,176.0,194.0,154.0
-10.0847,19.3189,24.1698,143.0,170.0,106.0
-7.614,18.7239,13.9381,183.0,126.0,96.0
-0.5803,18.545,27.041999999999998,146.0,142.0,117.0
-12.538499999999999,19.2732,23.6194,239.0,201.0,181.0
-10.5867,20.6206,23.6185,242.0,248.0,251.0
-6.3373,20.0236,18.0918,155.0,161.0,98.0
-4.0214,20.6157,14.872399999999999,235.0,238.0,233.0
0.9249,17.9677,25.195800000000002,185.0,177.0,171.0
-7.9681,15.551499999999999,18.6144,144.0,168.0,120.0
-8.1138,16.4779,18.651,156.0,179.0,110.0
-7.8227,14.507600000000002,13.583200000000001,116.0,160.0,123.0
-7.8444,14.5198,13.595199999999998,113.0,151.0,117.0
-5.7598,15.7792,27.9451,249.0,249.0,245.0
-5.2517000000000005,21.7776,13.7653,254.0,254.0,254.0
-7.1518,19.206200000000003,15.9869,238.0,236.0,233.0
-9.6618,13.1678,19.6639,153.0,182.0,118.0
-5.7501999999999995,15.7942,28.3822,250.0,254.0,255.0
-4.6104,21.604100000000003,13.911999999999999,122.0,168.0,114.0
-2.7566,20.0988,28.0163,160.0,175.0,149.0
-1.5273,18.8223,28.011000000000003,171.0,178.0,160.0
-0.5854,18.6415,27.293899999999997,157.0,158.0,137.0
-5.6237,16.9243,28.1858,252.0,252.0,254.0
-2.4367,19.5575,28.181099999999997,164.0,161.0,130.0
-12.622900000000001,19.3447,23.5922,141.0,156.0,117.0
-7.4543,14.443200000000001,13.1087,132.0,159.0,118.0
-8.2162,13.9125,14.0988,91.0,138.0,85.0
0.6342000000000001,18.0219,25.8399,167.0,170.0,167.0
-4.3421,19.567899999999998,31.6647,249.0,253.0,254.0
-4.7734,20.2396,28.036699999999996,181.0,168.0,162.0
1.1016,17.6531,25.1462,165.0,167.0,155.0
-0.8336,18.219099999999997,27.521800000000002,187.0,186.0,184.0
-9.92,19.3822,24.144299999999998,147.0,177.0,114.0
-7.7145,17.951800000000002,13.547600000000001,196.0,205.0,205.0
-7.9956,19.619,8.110199999999999,95.0,127.0,63.0
-7.1298,18.7592,17.5413,243.0,245.0,240.0
-7.444000000000001,13.122,12.9051,137.0,162.0,108.0
-4.4285,19.8161,30.821199999999997,255.0,255.0,253.0
-5.6913,17.7343,29.208499999999997,125.0,119.0,123.0
-4.005199999999999,19.416700000000002,32.0188,251.0,251.0,255.0
-7.2506,15.2662,13.0,97.0,129.0,103.0
-0.3855,17.796,25.694499999999998,254.0,254.0,254.0
-7.7155000000000005,17.601300000000002,18.3581,171.0,193.0,152.0
-9.965200000000001,18.831,24.3487,155.0,172.0,142.0
1.1077,17.5647,25.0417,161.0,161.0,147.0
-8.5598,18.0435,5.3023,43.0,35.0,34.0
-5.0541,21.3585,14.168700000000001,110.0,165.0,95.0
-3.2354000000000003,21.3699,13.818,253.0,255.0,250.0
-7.7858,20.427999999999997,24.093999999999998,254.0,254.0,254.0
-8.0929,15.517,13.944400000000002,107.0,151.0,95.0
-11.5846,19.240199999999998,23.95,125.0,156.0,95.0
-5.5529,17.5162,29.7307,141.0,135.0,141.0
-10.168800000000001,18.4234,24.4258,177.0,179.0,162.0
-4.8029,23.5488,17.715500000000002,174.0,188.0,145.0
-6.3862000000000005,20.0471,17.752100000000002,174.0,188.0,132.0
-6.1783,20.1377,17.749599999999997,252.0,254.0,254.0
-3.2197999999999998,21.6481,13.6208,161.0,192.0,156.0
-7.8373,20.0651,24.4035,173.0,197.0,152.0
-5.545400000000001,18.0386,29.9616,148.0,146.0,158.0
-5.9995,19.389300000000002,21.3291,255.0,254.0,254.0
-3.8122000000000003,22.0055,13.4759,109.0,166.0,90.0
-5.7514,16.606,28.1802,180.0,163.0,156.0
-5.1233,20.0454,26.686100000000003,236.0,239.0,239.0
-5.8817,19.5109,23.686,185.0,173.0,142.0
-4.7181,20.5162,14.9887,130.0,181.0,132.0
-4.0607,21.111,14.4374,144.0,190.0,153.0
-5.6559,17.3435,28.8416,122.0,120.0,122.0
-4.6535,18.5811,30.3129,254.0,255.0,255.0
-7.6669,19.9193,24.496100000000002,163.0,194.0,140.0
-7.4238,18.215899999999998,17.791,249.0,251.0,255.0
-7.4385,13.6433,13.232800000000001,110.0,156.0,113.0
-9.5873,19.8408,24.0043,162.0,186.0,137.0
-9.5635,19.8271,24.0126,161.0,185.0,136.0
-5.9417,22.1514,17.832700000000003,166.0,168.0,179.0
-9.343300000000001,13.972599999999998,19.615,146.0,183.0,132.0
-5.1701999999999995,20.6234,14.8817,104.0,155.0,75.0
-10.9212,19.1702,24.1416,144.0,176.0,125.0
-7.0728,19.919,24.5319,164.0,193.0,136.0
-7.103,17.7168,17.8703,122.0,160.0,114.0
-8.228100000000001,13.4872,13.9953,99.0,143.0,88.0
-6.2408,19.297800000000002,20.1699,251.0,251.0,252.0
-4.1714,22.3108,13.435,119.0,173.0,121.0
-5.6413,16.9595,29.3505,132.0,130.0,136.0
-8.0883,15.516399999999999,18.6907,159.0,185.0,142.0
-8.382299999999999,19.8305,24.305799999999998,160.0,190.0,144.0
-5.7187,16.9696,28.584500000000002,131.0,125.0,121.0
-6.9107,18.9299,17.2755,252.0,241.0,230.0
-5.309699999999999,22.6516,17.6331,126.0,132.0,79.0
-5.2148,23.1647,17.3622,204.0,205.0,207.0
-4.6101,21.3372,14.105799999999999,107.0,166.0,107.0
-5.1258,20.0271,26.7297,199.0,192.0,182.0
-3.8424,22.5338,13.1919,168.0,193.0,149.0
-7.519000000000001,13.1769,13.1436,132.0,161.0,118.0
0.769,18.0169,25.392,191.0,179.0,165.0
-6.4542,20.3594,17.7624,254.0,253.0,253.0
-0.1242,18.0479,27.493000000000002,194.0,211.0,228.0
-7.227799999999999,15.0056,12.9669,104.0,152.0,110.0
-7.727100000000001,20.216700000000003,8.369,116.0,137.0,76.0
-8.9278,14.9092,19.342100000000002,177.0,194.0,155.0
-8.9825,14.4451,19.1838,168.0,189.0,146.0
-0.146,18.029700000000002,27.4829,192.0,205.0,214.0
-4.1129999999999995,22.244,13.473799999999999,141.0,186.0,145.0
-2.2371,19.7156,27.4811,160.0,169.0,149.0
1.1739,17.6995,25.113400000000002,229.0,254.0,255.0
-8.1134,12.9113,13.8593,99.0,145.0,117.0
-5.0781,21.3816,14.1577,113.0,163.0,87.0
-5.508699999999999,21.4905,18.1222,253.0,253.0,255.0
0.7223,17.8043,25.130999999999997,254.0,254.0,254.0
-6.4979,19.6773,16.047700000000003,94.0,95.0,99.0
0.1619,18.211,26.841700000000003,174.0,165.0,135.0
-2.6108,19.874,27.4408,253.0,254.0,254.0
-2.3855,18.8553,28.3034,173.0,179.0,147.0
-7.509200000000001,12.606200000000001,13.2551,96.0,151.0,99.0
-2.4722999999999997,18.5489,28.281499999999998,210.0,214.0,208.0
-8.103,18.4134,11.6263,134.0,97.0,88.0
-8.822000000000001,20.0105,24.110799999999998,164.0,185.0,153.0
-5.5663,19.6172,24.9841,211.0,195.0,182.0
-8.4436,17.9876,7.581300000000001,117.0,98.0,69.0
-0.21480000000000002,17.9882,25.709,146.0,135.0,89.0
-9.2588,15.997800000000002,19.8577,169.0,178.0,128.0
-4.978,20.163,27.7756,191.0,169.0,139.0
0.7444000000000001,18.0363,25.2378,232.0,200.0,176.0
-8.045,17.269499999999997,18.7359,169.0,192.0,156.0
-4.5103,20.0062,30.2315,187.0,118.0,129.0
-4.920999999999999,23.1721,17.6836,250.0,249.0,249.0
-7.5574,19.5823,7.842300000000001,108.0,122.0,65.0
-5.5543000000000005,16.9224,29.467399999999998,131.0,124.0,129.0
-9.6933,14.257700000000002,19.9217,131.0,156.0,114.0
-10.177700000000002,18.3328,24.3828,254.0,254.0,253.0
-6.0636,21.0597,15.2544,127.0,168.0,120.0
-10.725,19.3417,24.0525,144.0,175.0,91.0
0.0239,18.2282,27.0193,150.0,152.0,117.0
-7.395300000000001,15.3644,13.211500000000001,94.0,128.0,83.0
-1.4059,18.5346,27.875899999999998,177.0,174.0,163.0
-5.9579,19.5451,23.1815,181.0,175.0,138.0
-5.9587,19.6482,23.7821,198.0,189.0,147.0
-8.6327,14.061499999999999,18.7389,172.0,186.0,143.0
-5.8909,20.0965,18.2575,166.0,166.0,119.0
-0.6308,18.3093,26.1818,157.0,153.0,128.0
-5.1697,19.936,26.315499999999997,209.0,205.0,200.0
0.8296,17.599600000000002,26.5414,169.0,177.0,174.0
-4.9738,17.2014,29.9427,239.0,242.0,244.0
-7.125900000000001,19.2089,15.9329,234.0,234.0,233.0
-0.3147,18.4031,27.2892,149.0,160.0,146.0
-0.8848999999999999,18.1182,26.0442,215.0,198.0,195.0
-11.9309,18.8932,23.9541,254.0,255.0,253.0
0.8536999999999999,17.9879,25.1861,227.0,204.0,185.0
-10.7673,20.5598,23.5485,245.0,252.0,253.0
0.6654,17.9169,26.5865,173.0,176.0,167.0
-3.8832,19.9086,28.654000000000003,177.0,194.0,115.0
-8.3768,16.2667,19.0327,152.0,179.0,121.0
-0.6311,18.2781,26.2419,158.0,154.0,142.0
-7.4525,14.5087,13.252,88.0,145.0,93.0
-4.7763,20.6695,14.8863,126.0,177.0,137.0
-4.6088,19.247500000000002,30.347800000000003,166.0,163.0,154.0
-7.9174,14.1995,13.68,115.0,163.0,146.0
-5.6288,18.418,29.993399999999998,155.0,144.0,145.0
-7.136000000000001,18.773799999999998,17.5113,254.0,254.0,254.0
-1.6805,18.3579,27.795599999999997,200.0,203.0,191.0
-5.4389,19.7153,25.934400000000004,254.0,253.0,252.0
-7.857799999999999,17.3693,13.958300000000001,241.0,240.0,232.0
-4.7056000000000004,21.5799,18.1701,203.0,191.0,173.0
0.3172,17.9067,27.2993,155.0,165.0,160.0
-1.4948,18.553,27.9912,177.0,203.0,222.0
-6.9042,18.215400000000002,17.8826,254.0,255.0,255.0
-8.9802,16.491500000000002,19.5252,251.0,250.0,244.0
-3.0119,20.404700000000002,27.757700000000003,252.0,253.0,254.0
-9.8678,14.199700000000002,19.983,168.0,175.0,157.0
-7.742,17.411099999999998,13.6057,93.0,141.0,85.0
-6.5538,20.360500000000002,17.6163,187.0,164.0,145.0
-5.657100000000001,20.157,18.311,255.0,255.0,255.0
-5.0947,21.515500000000003,14.0296,95.0,147.0,60.0
-1.2269,18.9448,27.3924,144.0,148.0,109.0
-2.0878,19.4541,27.9896,162.0,162.0,125.0
-4.4535,20.191300000000002,30.2813,246.0,243.0,239.0
-5.9844,21.964100000000002,17.9122,191.0,189.0,180.0
-5.4722,22.1741,17.3551,200.0,196.0,191.0
0.6007,17.5888,27.2403,245.0,251.0,254.0
-5.4298,19.6054,25.5865,253.0,254.0,254.0
-8.8199,14.999699999999999,19.2543,177.0,194.0,152.0
-3.4758999999999998,19.3904,28.572300000000002,222.0,239.0,242.0
-4.4635,20.192,28.712500000000002,252.0,254.0,254.0
-5.7069,19.4787,24.165200000000002,251.0,250.0,246.0
-5.5798,19.661,25.2305,239.0,220.0,204.0
-6.569,19.6997,16.0085,124.0,156.0,111.0
1.0532,17.5037,25.3401,191.0,186.0,132.0
-6.4713,20.602999999999998,17.728099999999998,250.0,251.0,252.0
-7.7228,19.2078,24.5734,172.0,199.0,147.0
-7.9903,14.672199999999998,18.5852,145.0,180.0,118.0
-7.680499999999999,14.4761,13.400899999999998,120.0,145.0,88.0
-4.194500000000001,21.921599999999998,13.6268,111.0,170.0,103.0
-5.5514,16.4579,29.326400000000003,164.0,169.0,187.0
-6.270499999999999,19.2362,21.2285,198.0,181.0,145.0
-5.830500000000001,19.547,23.7834,167.0,157.0,116.0
-6.4823,19.06,19.9208,235.0,210.0,198.0
-7.527699999999999,17.265800000000002,18.198800000000002,162.0,186.0,158.0
-6.558,19.1438,20.4822,254.0,253.0,251.0
-6.4232,20.1247,17.5642,251.0,254.0,254.0
-5.8819,19.4488,23.585700000000003,226.0,225.0,229.0
-6.975499999999999,19.116,17.782400000000003,208.0,167.0,135.0
-8.3474,18.808600000000002,7.560300000000001,101.0,123.0,58.0
-5.7552,16.6314,28.0291,245.0,246.0,255.0
-1.3881,19.1159,27.4244,141.0,147.0,100.0
-5.757700000000001,17.0695,29.137200000000004,144.0,143.0,151.0
-10.227,18.924,24.288899999999998,160.0,180.0,146.0
-5.5302,16.817,29.480099999999997,140.0,138.0,145.0
-2.2036,19.3059,28.171499999999998,162.0,167.0,124.0
-7.4065,13.856499999999999,12.998499999999998,120.0,150.0,98.0
-10.5331,20.0636,23.7761,156.0,185.0,109.0
-5.8033,16.4625,28.837600000000002,134.0,128.0,129.0
-7.7513,12.5612,13.5185,104.0,159.0,110.0
-8.2413,18.9279,7.6889,96.0,104.0,62.0
-7.607800000000001,17.6346,18.1033,250.0,254.0,255.0
-7.217700000000001,15.4058,12.9555,77.0,128.0,78.0
-7.775600000000001,12.7834,13.5683,105.0,161.0,109.0
-1.9053,18.4224,27.9179,251.0,246.0,232.0
-10.9821,19.4575,23.9087,145.0,174.0,111.0
-7.316599999999999,16.9544,18.0083,125.0,168.0,107.0
-8.7485,15.567,19.3828,163.0,173.0,134.0
-8.1364,16.6019,18.7337,159.0,185.0,130.0
-6.367399999999999,20.205000000000002,15.7124,143.0,185.0,143.0
-4.758,20.1582,27.7604,253.0,253.0,253.0
-9.5397,15.468399999999999,19.9211,199.0,171.0,136.0
-8.3068,17.952199999999998,5.2498000000000005,90.0,69.0,60.0
-1.9845000000000002,18.9469,28.1814,177.0,178.0,160.0
-5.8065,17.274,29.133799999999997,145.0,151.0,155.0
-4.442,20.2124,29.781299999999998,254.0,254.0,254.0
-1.3086,18.6566,27.9088,176.0,175.0,160.0
-12.479700000000001,19.2121,23.8078,200.0,233.0,255.0
-7.736400000000001,13.1603,13.461300000000001,151.0,163.0,125.0
-4.5128,21.4116,14.0297,96.0,156.0,86.0
-0.9282,18.7281,27.2953,136.0,135.0,119.0
-8.9577,15.932599999999999,19.623099999999997,148.0,179.0,131.0
-7.9255,18.5057,11.7885,119.0,72.0,57.0
-6.4799999999999995,19.206400000000002,20.7877,226.0,201.0,181.0
-7.455299999999999,13.2186,12.9514,127.0,158.0,107.0
-2.7237999999999998,20.0243,27.572200000000002,194.0,185.0,182.0
-9.757299999999999,13.87,19.9707,170.0,184.0,138.0
-12.3895,19.3467,23.69,131.0,156.0,96.0
-1.2914,18.316,27.683400000000002,195.0,201.0,200.0
-7.9464999999999995,17.224800000000002,18.578400000000002,136.0,182.0,130.0
-7.306500000000001,18.761400000000002,15.5748,254.0,253.0,254.0
-7.7344,16.416700000000002,18.4347,130.0,166.0,120.0
-7.0186,18.452199999999998,17.8169,212.0,222.0,208.0
-3.4316,19.2627,28.474100000000004,253.0,207.0,184.0
-3.5274,19.666800000000002,28.5696,184.0,199.0,155.0
-6.7812,19.043499999999998,24.6633,254.0,254.0,254.0
-5.2722,20.525,14.944199999999999,108.0,160.0,80.0
-6.186,19.4212,22.974,255.0,255.0,253.0
-7.818600000000001,18.4991,13.3296,194.0,122.0,80.0
-9.075099999999999,18.8202,24.4424,158.0,180.0,145.0
-6.564399999999999,19.9583,24.2349,254.0,238.0,221.0
-7.771400000000001,20.465,24.1398,251.0,251.0,250.0
-5.9734,19.4461,22.9702,173.0,156.0,140.0
-1.1705,18.5411,27.801399999999997,169.0,164.0,151.0
-5.721,20.8921,15.1139,122.0,164.0,112.0
-5.4862,22.2139,17.3182,227.0,227.0,228.0
-7.4786,13.838000000000001,13.1572,123.0,145.0,88.0
-3.4144,19.1906,28.494199999999996,254.0,254.0,251.0
-6.416099999999999,20.654700000000002,17.9228,184.0,158.0,144.0
-7.618900000000001,18.3456,18.141099999999998,253.0,253.0,249.0
-7.4323,19.2168,24.6126,171.0,198.0,151.0
-11.0282,20.4128,23.5752,173.0,181.0,135.0
-7.497800000000001,13.3581,12.7852,123.0,161.0,122.0
-8.0288,14.9562,13.7719,107.0,150.0,111.0
-7.1823,15.220500000000001,12.854099999999999,99.0,141.0,107.0
-5.6222,20.488400000000002,15.1059,102.0,153.0,84.0
-7.7688,16.230700000000002,13.4818,123.0,165.0,108.0
-6.2596,20.048099999999998,15.7319,121.0,158.0,110.0
0.7868999999999999,17.877399999999998,25.176900000000003,255.0,249.0,235.0
-7.5114,17.0477,18.002499999999998,198.0,211.0,225.0
-7.799200000000001,12.6586,13.5796,105.0,154.0,107.0
-8.0014,15.8691,13.7575,95.0,146.0,78.0
-9.2744,13.9047,19.4925,156.0,185.0,131.0
-5.4068,19.5959,25.381999999999998,251.0,255.0,255.0
-5.8136,16.3668,28.6813,134.0,128.0,128.0
-0.40940000000000004,18.4808,26.978,144.0,142.0,112.0
-8.2053,15.124299999999998,14.2872,112.0,154.0,116.0
-7.0642,19.0924,16.9769,195.0,201.0,125.0
-5.6222,22.5485,17.8516,164.0,167.0,174.0
-6.0288,19.650000000000002,24.2192,151.0,115.0,114.0
-0.8996000000000001,18.177,27.4989,250.0,253.0,254.0
-1.8821999999999999,18.4137,27.9047,246.0,246.0,239.0
-5.2149,21.9067,13.662099999999999,201.0,197.0,178.0
-7.7016,17.9098,18.3733,170.0,195.0,170.0
-5.4592,17.3622,29.782199999999996,141.0,136.0,144.0
1.1284,17.557000000000002,25.9928,160.0,174.0,162.0
-3.9001,20.9675,14.4907,164.0,197.0,148.0
-6.4724,19.2808,24.574299999999997,166.0,179.0,147.0
-4.7105,23.703,17.7115,178.0,185.0,157.0
-1.9352,19.0697,28.1401,169.0,178.0,157.0
1.0097,17.8032,25.7404,164.0,170.0,154.0
-4.9073,23.4429,17.8915,233.0,229.0,227.0
-7.940300000000001,12.7327,13.6766,88.0,138.0,90.0
-7.9288,19.8734,24.442700000000002,166.0,197.0,146.0
-10.8963,19.534499999999998,23.8427,140.0,175.0,113.0
-9.8255,14.458199999999998,19.904,123.0,144.0,74.0
-5.3141,20.7961,14.8145,91.0,141.0,79.0
-3.4785999999999997,20.3548,28.101,251.0,246.0,255.0
-3.7572,22.4057,13.2274,123.0,174.0,107.0
-8.6178,18.3087,6.8862000000000005,96.0,64.0,56.0
-5.861000000000001,16.0634,28.529100000000003,238.0,236.0,237.0
-5.366,20.4547,15.018500000000001,113.0,167.0,94.0
-9.0977,16.2472,19.673199999999998,243.0,250.0,248.0
-8.2575,12.909899999999999,13.9631,126.0,144.0,114.0
-7.7700000000000005,12.8623,13.5793,112.0,161.0,114.0
-7.398499999999999,18.8077,15.2251,213.0,176.0,160.0
-7.344,14.1509,13.0518,119.0,166.0,90.0
-7.439500000000001,18.171499999999998,17.7511,249.0,252.0,255.0
-4.8403,20.0601,27.9339,246.0,245.0,245.0
-12.564300000000001,19.5457,23.4049,136.0,161.0,115.0
-9.2736,15.468399999999999,19.7499,157.0,183.0,143.0
-0.3906,18.107699999999998,27.439400000000003,177.0,177.0,177.0
-7.8696,15.0366,18.4677,243.0,249.0,255.0
-8.2456,19.6127,24.4029,165.0,184.0,143.0
-1.7873,19.4084,27.744999999999997,175.0,176.0,137.0
-5.5828999999999995,16.9585,29.431800000000003,137.0,131.0,134.0
-8.4648,18.022299999999998,5.239599999999999,35.0,25.0,24.0
-5.0715,18.4699,30.3746,129.0,145.0,164.0
-11.7323,19.4313,23.7878,137.0,167.0,99.0
-7.4324,18.163899999999998,17.938599999999997,246.0,249.0,249.0
-7.4094999999999995,13.017400000000002,12.9965,107.0,147.0,111.0
-8.7989,16.0121,19.4812,154.0,180.0,134.0
-8.135399999999999,16.0596,18.7388,150.0,181.0,126.0
-7.892799999999999,20.4993,24.2079,169.0,186.0,160.0
-11.3209,20.0209,23.6314,139.0,162.0,79.0
-7.5733999999999995,19.114900000000002,24.5967,172.0,196.0,154.0
-6.4308000000000005,19.222,24.6836,254.0,254.0,254.0
0.9221999999999999,17.9585,25.4318,166.0,168.0,161.0
-5.2759,22.6863,17.302699999999998,127.0,135.0,155.0
-7.6073,16.2568,13.3937,136.0,156.0,106.0
-9.7235,14.119200000000001,19.9996,136.0,172.0,131.0
-4.1129,21.8477,13.6618,125.0,178.0,127.0
-5.1235,23.3754,17.363899999999997,219.0,217.0,217.0
-4.5267,20.063200000000002,28.479100000000003,255.0,255.0,255.0
-7.4465,18.8442,24.5675,254.0,254.0,253.0
-3.8312,22.3706,13.287299999999998,123.0,173.0,104.0
-5.619,17.8126,29.185200000000002,138.0,125.0,129.0
-6.0643,20.9069,18.2668,251.0,247.0,244.0
-4.9127,23.863599999999998,17.3916,199.0,208.0,193.0
-8.788400000000001,14.6179,19.0805,175.0,192.0,154.0
0.9730000000000001,17.3212,25.0965,242.0,240.0,239.0
-6.1262,19.356499999999997,22.3941,174.0,158.0,119.0
-7.1194999999999995,15.6472,12.7079,254.0,251.0,245.0
-7.524500000000001,17.453,18.1956,155.0,184.0,140.0
-8.6807,20.3744,24.1257,174.0,195.0,147.0
-4.9703,20.0601,27.622200000000003,207.0,192.0,170.0
-7.5565999999999995,12.831699999999998,12.7703,121.0,161.0,144.0
-7.415900000000001,18.8406,14.772499999999999,183.0,163.0,160.0
-7.6077,18.7977,24.4981,190.0,188.0,155.0
-8.3211,17.9998,7.4639999999999995,100.0,92.0,59.0
-12.2705,19.3891,23.684,135.0,161.0,110.0
-8.2719,13.6224,14.194,133.0,162.0,109.0
-4.35,20.0616,30.804900000000004,202.0,219.0,235.0
-9.9708,13.215399999999999,19.908,162.0,185.0,136.0
-0.9280999999999999,17.9728,25.901000000000003,254.0,254.0,252.0
-4.2128,20.7566,14.7758,121.0,169.0,108.0
-7.619800000000001,19.4697,24.5884,173.0,201.0,150.0
-5.0127,18.7581,30.394399999999997,133.0,126.0,110.0
-8.5991,18.229699999999998,7.4590000000000005,101.0,70.0,61.0
-7.878,15.110399999999998,18.581500000000002,133.0,172.0,103.0
-5.8346,16.322,28.499299999999998,126.0,123.0,123.0
-11.027800000000001,19.4745,23.8923,130.0,167.0,112.0
-8.1215,19.8259,24.3946,165.0,196.0,154.0
-12.610299999999999,19.335,23.6691,169.0,198.0,198.0
-7.373200000000001,13.6613,12.997200000000001,117.0,146.0,87.0
-7.540900000000001,13.9622,13.2127,121.0,142.0,86.0
-6.2463999999999995,20.0711,17.9029,177.0,188.0,130.0
-5.3206999999999995,20.0377,15.505700000000001,134.0,182.0,142.0
-7.613499999999999,17.4676,18.2588,146.0,177.0,126.0
-8.8486,14.5255,19.075300000000002,169.0,189.0,145.0
-6.111,20.156299999999998,15.576300000000002,108.0,150.0,93.0
-5.8199000000000005,22.1208,17.9077,169.0,171.0,170.0
-7.7348,17.968899999999998,13.711300000000001,176.0,159.0,123.0
-8.6378,18.2814,7.8612,155.0,133.0,126.0
-2.5631,19.8775,28.0575,182.0,194.0,163.0
-4.5626,19.7142,30.3859,180.0,174.0,122.0
-5.0478000000000005,19.5582,30.4635,163.0,156.0,149.0
-4.9311,21.6954,18.1172,186.0,167.0,151.0
1.1018999999999999,17.708299999999998,25.303199999999997,170.0,173.0,167.0
-2.589,20.0137,27.5308,196.0,180.0,162.0
-2.9877000000000002,20.008300000000002,28.2772,175.0,188.0,151.0
-4.869,19.2089,30.4388,168.0,148.0,129.0
-4.9689,21.726200000000002,18.0868,172.0,147.0,145.0
-1.9411999999999998,19.2549,28.0775,177.0,183.0,149.0
-7.4699,15.6106,13.339200000000002,103.0,153.0,116.0
-0.8203,18.6906,27.262700000000002,138.0,132.0,121.0
-4.3859,21.9645,17.9108,230.0,227.0,230.0
-5.320600000000001,20.2703,15.289,142.0,189.0,150.0
-4.3087,21.9912,17.9394,208.0,205.0,198.0
-10.9837,18.8302,24.1872,140.0,162.0,102.0
-2.2944,18.662799999999997,28.292499999999997,227.0,240.0,241.0
-5.7569,19.422,23.924500000000002,249.0,254.0,255.0
-2.1679,19.4749,28.055600000000002,166.0,157.0,121.0
-7.449,15.933,18.0455,149.0,179.0,122.0
-7.86,15.6075,13.545499999999999,95.0,147.0,85.0
-10.3661,18.939700000000002,24.2534,155.0,175.0,132.0
-7.4994000000000005,17.8546,18.0532,208.0,216.0,214.0
-3.3118000000000003,20.2535,28.362900000000003,183.0,196.0,152.0
-7.4188,13.357800000000001,13.167499999999999,98.0,138.0,86.0
-2.0931,19.341900000000003,27.1336,182.0,169.0,162.0
-6.6108,20.1618,17.1923,252.0,255.0,255.0
-8.715100000000001,16.4166,19.4624,162.0,185.0,145.0
-5.7245,20.1106,15.4637,122.0,176.0,97.0
-5.4646,19.2467,30.460900000000002,219.0,176.0,169.0
-6.5623000000000005,19.1511,20.1742,207.0,184.0,156.0
-5.0648,20.0958,26.692700000000002,254.0,254.0,255.0
-8.8203,18.8667,24.468899999999998,155.0,177.0,141.0
0.40140000000000003,18.0841,26.1508,165.0,157.0,140.0
-5.3450999999999995,20.8845,14.6067,254.0,255.0,255.0
-7.7246,18.9262,24.5867,165.0,186.0,136.0
-7.6236999999999995,12.217,13.196299999999999,120.0,138.0,101.0
-11.049299999999999,19.891000000000002,23.7471,144.0,172.0,85.0
-1.4215,19.173399999999997,27.539799999999996,169.0,166.0,120.0
-11.2234,19.5168,23.8266,144.0,175.0,113.0
-4.8075,20.1462,28.0282,221.0,174.0,146.0
-9.0228,16.0146,19.704,171.0,190.0,147.0
-7.492500000000001,13.5413,12.5246,123.0,155.0,124.0
-8.0464,14.6228,13.853399999999999,100.0,155.0,114.0
-9.2751,19.361700000000003,24.2613,152.0,186.0,127.0
-2.8288,20.2104,27.942099999999996,171.0,179.0,147.0
-7.553999999999999,14.463400000000002,13.2493,141.0,163.0,109.0
-7.928399999999999,20.2288,24.3338,171.0,197.0,155.0
0.8805000000000001,17.8127,25.8442,173.0,191.0,163.0
-7.673000000000001,14.369100000000001,13.483300000000002,113.0,165.0,107.0
-5.3657,21.0472,18.2074,254.0,254.0,254.0
0.2272,17.6658,27.3528,238.0,252.0,255.0
-7.7521,17.646800000000002,18.2313,187.0,200.0,160.0
-4.6527,20.061,29.884,199.0,199.0,130.0
-5.5541,19.0764,30.4162,156.0,147.0,151.0
-7.2867,15.8494,13.1033,80.0,124.0,61.0
-3.4247,22.1921,13.2662,140.0,189.0,114.0
-5.8126999999999995,15.629199999999999,27.9848,211.0,232.0,247.0
-5.4042,17.2731,29.8292,141.0,136.0,142.0
-8.1237,15.5102,14.097999999999999,99.0,147.0,83.0
-9.9666,13.8316,20.05,255.0,234.0,206.0
-6.5089,19.2653,19.9935,250.0,226.0,185.0
-7.3424000000000005,14.757700000000002,12.998499999999998,103.0,126.0,89.0
-4.8582,17.6128,30.023699999999998,172.0,157.0,155.0
-8.1753,18.5503,10.776,146.0,96.0,75.0
-6.6123,19.1772,18.865199999999998,245.0,247.0,246.0
-8.2838,15.062999999999999,18.7864,155.0,182.0,141.0
-5.3275999999999994,21.4417,14.315700000000001,229.0,225.0,207.0
-1.8886,18.3528,27.8945,254.0,254.0,247.0
-5.0129,21.5584,13.934099999999999,115.0,164.0,127.0
0.9645000000000001,17.9586,25.335600000000003,167.0,169.0,162.0
-7.6545000000000005,14.1703,13.492399999999998,109.0,161.0,100.0
-6.02,19.3552,22.8247,231.0,222.0,215.0
-9.726899999999999,13.8566,19.9527,154.0,175.0,125.0
-3.8768,21.3616,14.177000000000001,136.0,184.0,133.0
-2.8991,20.0441,28.1747,176.0,188.0,148.0
-4.6686,21.9253,13.6028,122.0,177.0,119.0
-0.6897,18.1387,26.060899999999997,142.0,134.0,123.0
-4.019699999999999,21.1506,14.407700000000002,146.0,190.0,151.0
-8.7731,14.2192,18.8397,155.0,176.0,128.0
-2.2425,19.4383,27.101999999999997,251.0,255.0,254.0
-4.2139999999999995,20.9473,14.610100000000001,141.0,185.0,128.0
-8.2155,14.068,14.0459,98.0,142.0,96.0
1.0106,17.2569,25.1417,254.0,254.0,255.0
-7.398000000000001,17.0089,17.8763,253.0,254.0,255.0
-7.4839,16.738,13.3711,137.0,155.0,118.0
-2.0382000000000002,19.6022,27.744400000000002,155.0,166.0,135.0
-6.947100000000001,19.145899999999997,18.0566,218.0,171.0,138.0
-11.9754,19.1631,23.9418,130.0,164.0,110.0
-5.8525,16.0084,28.3952,217.0,211.0,210.0
-3.4123,20.3106,28.4105,178.0,191.0,146.0
-9.234399999999999,13.270299999999999,19.2317,183.0,196.0,156.0
-9.2288,18.8765,24.3857,158.0,180.0,145.0
-5.6564000000000005,18.0733,29.4757,125.0,117.0,121.0
-0.9894999999999999,18.7139,27.033,160.0,159.0,132.0
-9.0187,19.7404,24.1508,149.0,176.0,121.0
-0.9376000000000001,18.224,26.040200000000002,189.0,187.0,152.0
-6.2218,19.267400000000002,21.5198,207.0,199.0,151.0
-5.7174000000000005,17.7158,29.3367,158.0,145.0,147.0
-1.2116,19.003999999999998,27.5517,231.0,215.0,187.0
-9.9409,13.6649,19.9574,194.0,192.0,140.0
0.8845999999999999,17.9808,25.397199999999998,157.0,149.0,132.0
-9.270100000000001,13.450000000000001,19.301399999999997,118.0,154.0,109.0
-7.0268999999999995,19.9798,24.5009,177.0,203.0,159.0
-2.7901,19.656399999999998,28.3371,179.0,177.0,142.0
-5.1235,22.859199999999998,17.6229,114.0,111.0,101.0
-0.9358,18.4577,27.7945,179.0,179.0,177.0
-10.1614,12.6862,19.7729,174.0,202.0,169.0
-6.3179,20.698,15.4324,126.0,164.0,121.0
-1.0940999999999999,18.8568,27.1886,141.0,148.0,108.0
-7.5209,18.7445,14.1306,239.0,235.0,234.0
-4.5643,21.5661,13.933699999999998,141.0,183.0,144.0
-7.882899999999999,15.4205,18.5722,137.0,170.0,110.0
-5.8787,22.182199999999998,17.8889,166.0,162.0,156.0
-9.0436,16.3236,19.6304,219.0,220.0,198.0
-6.9972,19.398799999999998,15.9646,255.0,255.0,254.0
-7.831,18.0426,18.4165,145.0,171.0,140.0
-7.6259999999999994,16.960900000000002,18.2945,193.0,204.0,179.0
-5.216,21.3169,14.381,118.0,166.0,126.0
-5.842,21.9891,17.9361,179.0,178.0,175.0
-8.568000000000001,20.6795,24.093600000000002,194.0,199.0,170.0
-6.0685,19.849,15.822,113.0,160.0,99.0
-6.2757,19.2658,21.5164,191.0,165.0,126.0
-8.0296,15.2733,13.695099999999998,102.0,154.0,105.0
-9.016200000000001,19.825200000000002,24.118100000000002,153.0,179.0,133.0
-1.4815,19.0124,27.9451,168.0,169.0,150.0
-7.850600000000001,16.6064,18.3904,167.0,187.0,138.0
-4.5178,21.9919,17.849400000000003,253.0,254.0,254.0
1.0766,17.4998,25.9384,251.0,251.0,249.0
-5.563400000000001,17.4146,28.7465,246.0,242.0,243.0
-3.6634,22.5761,13.0548,242.0,250.0,250.0
-5.3797999999999995,22.4135,17.9001,162.0,146.0,129.0
-9.334000000000001,14.969199999999999,19.6874,137.0,164.0,112.0
-1.0354999999999999,18.758,27.802599999999998,180.0,176.0,161.0
-7.8607,17.515700000000002,13.9048,208.0,217.0,207.0
-6.5468,20.4541,17.557100000000002,253.0,253.0,251.0
-10.8718,20.4691,23.5919,154.0,169.0,110.0
-6.273,19.358,21.8371,185.0,176.0,134.0
-7.746500000000001,18.4482,13.669999999999998,166.0,135.0,119.0
-6.3544,19.0788,20.5198,187.0,179.0,144.0
-7.5711,14.5755,13.390699999999999,87.0,145.0,92.0
-5.5174,19.763,25.0771,192.0,183.0,151.0
-4.5385,20.439799999999998,29.335099999999997,221.0,227.0,239.0
-3.5564,21.5108,13.9297,140.0,183.0,132.0
-8.9141,15.160599999999999,19.406399999999998,163.0,185.0,142.0
-0.0182,18.2737,27.1908,170.0,165.0,145.0
-4.5155,21.2941,14.122599999999998,139.0,188.0,110.0
-8.1726,15.218000000000002,14.1572,104.0,147.0,99.0
-9.137599999999999,13.5544,18.9877,196.0,214.0,180.0
-6.2391000000000005,19.176399999999997,21.047,208.0,199.0,186.0
-9.2137,13.556399999999998,19.203,172.0,190.0,141.0
-6.1998,20.0885,18.1598,162.0,174.0,107.0
-2.1944000000000004,19.7454,27.6254,161.0,171.0,144.0
-5.3172,22.9489,17.8344,144.0,142.0,140.0
-5.4956,18.508399999999998,29.4473,255.0,254.0,255.0
-5.787599999999999,17.2377,29.0249,149.0,160.0,175.0
-6.945600000000001,19.199099999999998,18.2198,204.0,166.0,140.0
-5.536,17.916,29.1341,197.0,168.0,165.0
-5.2736,20.8869,14.761299999999999,112.0,155.0,89.0
-8.7767,20.775,24.022,238.0,239.0,239.0
-5.9392,20.0948,18.6031,223.0,206.0,163.0
-5.1027000000000005,21.4638,14.072499999999998,114.0,160.0,79.0
-7.327500000000001,19.7334,24.5793,177.0,195.0,131.0
-3.873,19.8564,28.6505,173.0,196.0,131.0
-1.931,18.4536,27.9459,209.0,205.0,198.0
-12.7894,19.3337,23.4908,206.0,200.0,189.0
-7.5736,14.5426,13.300699999999999,147.0,165.0,128.0
-4.3043,20.0826,30.869000000000003,251.0,254.0,254.0
-8.0778,16.4625,18.584,173.0,191.0,121.0
-7.6767,16.0087,18.3998,127.0,170.0,101.0
-7.8956,13.0256,13.6607,102.0,152.0,106.0
-5.289,22.7762,17.9361,223.0,220.0,221.0
-6.5254,19.0584,19.8818,251.0,232.0,216.0
-1.2208,18.7712,26.6725,159.0,157.0,151.0
-5.899,20.8045,15.238,123.0,165.0,113.0
-5.3342,22.811500000000002,17.2061,254.0,253.0,254.0
-0.1281,18.1282,25.987199999999998,145.0,143.0,125.0
-7.4094,13.174,13.1555,98.0,148.0,93.0
-1.4339,19.1211,27.8044,169.0,159.0,136.0
-7.1242,19.1003,16.5275,196.0,196.0,123.0
-4.4215,22.4221,13.3893,155.0,194.0,163.0
-6.0897,20.917099999999998,18.2486,238.0,229.0,227.0
-7.7341,15.258099999999999,18.5434,139.0,185.0,133.0
-8.5921,18.3648,7.288500000000001,108.0,69.0,60.0
-7.4357999999999995,14.3183,12.965499999999999,126.0,163.0,120.0
-6.719,19.6604,24.549799999999998,183.0,188.0,142.0
-7.174600000000001,18.9389,24.5621,181.0,191.0,153.0
-5.2248,20.9255,14.607000000000001,222.0,240.0,253.0
-9.0638,19.7794,24.1234,146.0,174.0,119.0
-8.1003,15.3202,13.8965,104.0,149.0,100.0
-4.7757000000000005,19.1133,30.4309,152.0,157.0,141.0
-5.603000000000001,18.4882,30.0614,150.0,146.0,153.0
-7.466100000000001,15.366299999999999,13.277700000000001,107.0,152.0,119.0
0.7084,18.0061,25.229200000000002,199.0,195.0,168.0
1.1493,17.6482,25.5996,154.0,163.0,145.0
-8.1825,15.0192,14.151900000000001,110.0,153.0,98.0
-7.3853,18.7649,15.2756,250.0,247.0,245.0
-7.407,18.7783,15.368,253.0,254.0,254.0
-7.660799999999999,13.180900000000001,13.5244,111.0,166.0,115.0
-6.9906,18.9485,17.6883,206.0,175.0,167.0
-8.045399999999999,19.020200000000003,7.7055,106.0,141.0,90.0
-7.8472,17.6159,18.5284,138.0,177.0,131.0
-8.0241,19.9218,24.3871,161.0,191.0,145.0
-9.6219,20.5149,23.633100000000002,232.0,233.0,231.0
-2.1402,19.7095,27.7463,167.0,169.0,131.0
-9.0508,13.7617,18.8701,189.0,203.0,197.0
-4.5135000000000005,21.6879,18.2652,255.0,255.0,255.0
-5.0163,21.436,14.050899999999999,121.0,164.0,100.0
-5.6485,18.5734,30.0139,146.0,137.0,141.0
-1.5268,18.721799999999998,26.6679,163.0,142.0,135.0
-4.9179,21.8433,13.677,118.0,169.0,97.0
-4.0219,19.670299999999997,28.7439,254.0,254.0,254.0
-8.1468,15.6041,14.0348,145.0,179.0,123.0
-5.7804,16.6263,28.9339,140.0,141.0,149.0
0.7818999999999999,18.0092,25.185299999999998,243.0,215.0,194.0
-2.4202999999999997,18.682499999999997,28.2633,189.0,186.0,156.0
-4.6623,20.2859,28.329500000000003,163.0,131.0,141.0
-4.4447,20.0675,30.6157,229.0,201.0,182.0
-1.4912,19.166900000000002,27.7359,185.0,179.0,147.0
-4.8904000000000005,20.214499999999997,27.4515,251.0,254.0,253.0
-5.2749,20.3096,15.2238,126.0,177.0,122.0
-7.4346,13.114500000000001,12.806400000000002,126.0,159.0,106.0
-9.7737,19.9683,23.928,165.0,189.0,139.0
-8.0792,15.1665,13.8055,111.0,152.0,93.0
-9.3198,14.250599999999999,19.6542,130.0,169.0,111.0
-2.3344,19.8596,27.742299999999997,179.0,182.0,150.0
-6.9786,19.061,17.8311,202.0,164.0,145.0
-8.0773,18.5494,11.43,144.0,91.0,72.0
-9.4761,20.5582,23.644299999999998,212.0,212.0,211.0
-9.0851,14.3539,19.244500000000002,156.0,181.0,136.0
-6.8336,19.3105,18.3174,209.0,223.0,228.0
-0.6299,17.9459,25.838,254.0,252.0,253.0
-7.630299999999999,20.005200000000002,8.1723,124.0,150.0,84.0
0.34459999999999996,18.137,25.8905,164.0,148.0,111.0
-0.9329999999999999,18.1373,25.896400000000003,255.0,245.0,233.0
-8.9732,18.6204,24.5257,185.0,199.0,181.0
-5.510000000000001,17.5248,28.7883,253.0,253.0,253.0
-8.378499999999999,18.1582,5.4313,37.0,28.0,30.0
-2.8672,22.3518,12.9742,255.0,249.0,237.0
-7.284599999999999,15.271399999999998,12.950800000000001,98.0,127.0,83.0
