-12.5012,16.6025,20.8006,196.0,136.0,99.0
-13.7302,15.425600000000001,28.4091,206.0,214.0,203.0
-12.1557,18.0486,21.7637,145.0,202.0,128.0
-14.502799999999999,15.6536,30.087799999999998,197.0,131.0,110.0
-11.5268,21.277099999999997,17.974,133.0,168.0,142.0
-11.6647,14.746899999999998,30.259700000000002,162.0,192.0,147.0
-13.567499999999999,15.8832,26.7804,225.0,206.0,200.0
-12.2543,17.6603,12.531600000000001,160.0,110.0,85.0
-10.9667,24.621100000000002,17.5154,135.0,170.0,143.0
-11.3292,21.7628,15.7344,255.0,254.0,253.0
-12.570300000000001,16.300600000000003,21.2309,174.0,197.0,150.0
-12.714900000000002,12.1599,11.8244,135.0,183.0,102.0
-10.9229,13.487499999999999,31.696999999999996,169.0,194.0,139.0
-12.789700000000002,16.0529,22.970499999999998,197.0,143.0,120.0
-14.569299999999998,20.5774,22.6266,129.0,185.0,102.0
-12.2069,17.6323,15.642800000000001,233.0,230.0,228.0
-11.7265,15.1031,29.7697,255.0,255.0,254.0
-11.9715,18.171100000000003,16.8599,252.0,244.0,242.0
-12.668299999999999,13.9381,22.1795,252.0,253.0,253.0
-14.6652,12.513399999999999,22.3523,125.0,158.0,109.0
-13.168299999999999,14.982599999999998,21.7133,142.0,185.0,91.0
-14.4809,20.7671,23.3752,153.0,187.0,140.0
-11.6509,19.2274,17.3129,205.0,233.0,168.0
-13.462399999999999,12.349300000000001,22.6373,137.0,171.0,139.0
-14.496500000000001,19.8792,23.5791,162.0,200.0,133.0
-11.5046,13.7346,31.144500000000004,138.0,178.0,128.0
-11.2092,13.342,31.6922,147.0,178.0,128.0
-12.3317,17.7857,11.8831,179.0,139.0,97.0
-12.5059,10.9788,13.5466,174.0,224.0,142.0
-12.8419,16.3598,22.8226,252.0,242.0,235.0
-13.5368,14.949499999999999,21.5392,135.0,172.0,106.0
-13.0665,16.0013,23.3238,178.0,133.0,118.0
-13.7119,13.0351,22.2611,112.0,157.0,98.0
-12.0356,17.6057,12.6906,193.0,162.0,142.0
-12.740099999999998,12.1137,11.5789,133.0,183.0,108.0
-14.5367,19.825499999999998,24.3253,163.0,197.0,141.0
-13.386999999999999,16.0334,26.009999999999998,252.0,232.0,219.0
-11.8147,18.5499,20.813200000000002,247.0,249.0,246.0
-12.7231,11.9311,11.4674,132.0,183.0,101.0
-14.5205,20.1752,23.4222,153.0,191.0,124.0
-14.1292,17.6114,24.9525,138.0,192.0,102.0
-12.895400000000002,16.2607,22.1559,181.0,134.0,119.0
-12.6921,13.3991,30.9128,239.0,241.0,255.0
-11.8912,17.5649,16.6739,249.0,192.0,154.0
-12.3134,10.796,13.485,185.0,219.0,133.0
-11.1246,24.7742,17.8306,233.0,243.0,241.0
-10.603,25.305699999999998,16.9179,117.0,163.0,133.0
-10.8836,24.6765,16.1142,254.0,254.0,254.0
-14.616999999999999,12.5986,22.2861,123.0,160.0,105.0
-11.8287,13.097900000000001,31.7572,152.0,184.0,136.0
-11.850299999999999,18.1401,17.205000000000002,188.0,188.0,145.0
-11.094800000000001,24.7245,17.8146,147.0,166.0,157.0
-13.1328,22.0392,22.1852,213.0,223.0,218.0
-12.9244,13.2258,13.560500000000001,167.0,188.0,135.0
-12.529699999999998,16.4415,20.4821,184.0,130.0,108.0
-12.0099,11.140500000000001,13.505,159.0,210.0,137.0
-12.1151,17.8735,13.423499999999999,255.0,250.0,245.0
-13.000800000000002,13.3358,13.3163,217.0,201.0,146.0
-12.6001,11.9153,11.8802,126.0,177.0,90.0
-10.6608,25.0961,16.8501,174.0,200.0,200.0
-12.698699999999999,15.9713,21.4485,170.0,164.0,127.0
-13.524700000000001,15.6484,27.0826,204.0,152.0,144.0
-11.8562,18.379,17.163999999999998,164.0,188.0,122.0
-10.7578,25.177699999999998,16.5733,157.0,181.0,153.0
-12.3629,13.5397,30.9073,182.0,203.0,150.0
-11.3719,20.5292,16.3714,173.0,206.0,141.0
-12.560699999999999,11.915000000000001,12.1525,126.0,177.0,90.0
-12.767000000000001,13.489899999999999,22.2589,213.0,193.0,164.0
-11.8522,18.1509,21.1862,178.0,201.0,130.0
-14.196900000000001,18.019099999999998,24.6707,150.0,198.0,108.0
-12.822700000000001,18.006,7.1411,80.0,70.0,72.0
-14.1765,18.8897,25.058200000000003,144.0,189.0,129.0
-11.277,20.924699999999998,16.8143,178.0,205.0,138.0
-12.7242,14.407700000000002,30.1299,167.0,200.0,146.0
-13.4807,15.9956,26.1353,226.0,204.0,197.0
-13.394800000000002,14.299000000000001,29.8621,243.0,239.0,233.0
-14.535300000000001,20.926000000000002,22.4624,151.0,194.0,134.0
-12.8443,21.279799999999998,22.3753,162.0,176.0,116.0
-10.738100000000001,23.4808,16.8584,193.0,198.0,152.0
-14.510799999999998,20.2271,23.1683,153.0,195.0,125.0
-13.011600000000001,15.636,21.3695,111.0,152.0,86.0
-13.918700000000001,13.2385,22.0935,147.0,182.0,143.0
-10.9483,24.4331,17.4504,142.0,170.0,145.0
-12.9529,18.4343,7.3682,178.0,144.0,131.0
-12.901399999999999,16.3261,22.486800000000002,188.0,147.0,129.0
-10.9653,13.0384,32.1514,137.0,170.0,123.0
-14.6581,19.785800000000002,22.8822,150.0,200.0,129.0
-12.1616,17.1916,18.6798,166.0,103.0,79.0
-12.525,13.7956,30.7543,158.0,189.0,135.0
-13.513,14.7004,21.682399999999998,119.0,164.0,110.0
-11.2547,21.140700000000002,16.961100000000002,182.0,210.0,142.0
-12.723799999999999,14.4229,22.0018,139.0,172.0,144.0
-13.586400000000001,15.407399999999999,28.142,254.0,255.0,254.0
-11.4511,19.9745,16.9771,182.0,217.0,152.0
-11.2856,12.9056,32.032,174.0,195.0,147.0
-13.711699999999999,12.3455,22.575200000000002,128.0,164.0,127.0
-10.9809,22.6706,16.2073,175.0,213.0,154.0
-12.4789,13.855300000000002,30.658600000000003,175.0,200.0,148.0
-12.679699999999999,12.1592,12.0213,128.0,173.0,111.0
-11.952300000000001,15.1726,29.744500000000002,163.0,187.0,137.0
-11.023900000000001,12.5023,32.5998,235.0,234.0,223.0
-12.2149,18.3431,22.2596,167.0,199.0,118.0
-14.987300000000001,15.5018,31.8586,220.0,170.0,144.0
-12.585099999999999,16.345299999999998,22.0172,219.0,175.0,155.0
-14.846,15.8025,30.7946,223.0,193.0,188.0
-12.2601,17.494899999999998,15.3719,186.0,142.0,117.0
-12.3546,17.6657,22.700699999999998,185.0,207.0,130.0
-12.619299999999999,13.569999999999999,14.1856,153.0,160.0,141.0
-11.2431,20.9748,16.5125,176.0,211.0,144.0
-12.879399999999999,15.454399999999998,29.2265,160.0,187.0,144.0
-12.628,14.4794,21.9452,157.0,179.0,163.0
-11.0181,12.8557,32.3159,142.0,178.0,128.0
-12.1141,18.1961,22.6986,251.0,251.0,252.0
-10.6305,24.3226,16.764699999999998,176.0,192.0,127.0
-10.633099999999999,25.3143,16.9098,131.0,172.0,141.0
-12.814400000000001,12.654499999999999,11.6298,115.0,175.0,67.0
-12.8923,13.0586,12.4747,97.0,161.0,55.0
-13.9548,15.466099999999999,28.328799999999998,199.0,149.0,126.0
-12.7606,20.5232,20.7786,100.0,147.0,90.0
-14.555000000000001,19.9284,24.3256,157.0,194.0,133.0
-10.6701,25.6951,16.959,174.0,186.0,176.0
-10.9595,12.835099999999999,32.236,174.0,192.0,135.0
-14.174700000000001,17.2399,24.718300000000003,136.0,180.0,123.0
-12.4131,17.9945,11.2343,174.0,132.0,102.0
-12.6807,18.031,8.8333,147.0,93.0,65.0
-11.9686,11.7905,13.6063,172.0,212.0,140.0
-10.613,25.5803,16.5494,255.0,254.0,255.0
-11.2529,20.9816,16.3744,179.0,215.0,154.0
-10.5681,13.927600000000002,31.5899,168.0,194.0,146.0
-12.393899999999999,18.1083,8.4531,147.0,113.0,88.0
-12.9578,21.3365,21.0638,240.0,245.0,246.0
-12.2669,17.4848,14.927499999999998,170.0,126.0,105.0
-11.6657,14.8232,30.1865,174.0,198.0,157.0
-12.603,17.962500000000002,9.1403,151.0,126.0,100.0
-12.1305,18.2963,18.8834,195.0,170.0,159.0
-10.4987,25.4791,16.4178,252.0,248.0,243.0
-13.259599999999999,13.7396,22.151699999999998,125.0,167.0,109.0
-12.3331,17.799200000000003,22.785800000000002,185.0,206.0,123.0
-12.5312,14.0594,30.4224,181.0,203.0,145.0
-12.811900000000001,18.2412,6.333900000000001,196.0,176.0,144.0
-11.3081,12.7822,32.1469,179.0,204.0,155.0
-12.8379,12.718399999999999,12.627099999999999,134.0,186.0,87.0
-13.0838,15.912,24.1404,198.0,143.0,120.0
-12.3047,17.8146,22.3057,167.0,198.0,120.0
-14.566200000000002,20.0733,24.2237,161.0,195.0,143.0
-14.433000000000002,21.011499999999998,22.9671,136.0,172.0,96.0
-13.629900000000001,15.8906,25.834000000000003,204.0,155.0,118.0
-11.4953,19.7246,17.0136,171.0,203.0,134.0
-11.3636,20.7026,17.4262,172.0,212.0,147.0
-11.9731,18.7411,20.9132,218.0,218.0,170.0
-14.731,15.6951,29.976999999999997,189.0,141.0,121.0
-12.471599999999999,17.8996,9.532,162.0,130.0,96.0
-11.2628,21.0117,16.2912,177.0,214.0,156.0
-10.5139,25.541399999999996,16.5537,198.0,187.0,177.0
-11.567,19.4242,16.557,173.0,201.0,136.0
-12.5303,18.0358,7.5775,77.0,53.0,56.0
-11.8636,21.488699999999998,18.4743,255.0,255.0,255.0
-12.879999999999999,13.170100000000001,13.5206,162.0,186.0,123.0
-11.7895,18.4802,17.0783,150.0,185.0,129.0
-11.676,19.0672,16.7669,170.0,201.0,135.0
-14.727799999999998,21.0662,21.5967,228.0,223.0,205.0
-14.2797,15.7083,28.886499999999998,172.0,113.0,86.0
-12.325,15.2915,14.746799999999999,196.0,157.0,155.0
-12.8594,10.7401,13.541400000000001,177.0,229.0,182.0
-12.958,11.1365,13.605500000000001,174.0,219.0,142.0
-14.857600000000001,12.9779,21.8694,138.0,148.0,143.0
-11.2683,20.9194,16.558,178.0,212.0,147.0
-11.5311,19.8818,17.516499999999997,149.0,185.0,129.0
-12.6246,16.188,22.1475,209.0,163.0,137.0
-13.7503,18.3064,25.4129,255.0,255.0,255.0
-10.986899999999999,23.726,15.878300000000001,202.0,223.0,206.0
-14.571700000000002,12.6332,22.2633,127.0,161.0,109.0
-10.8873,13.314300000000001,31.9683,128.0,170.0,120.0
-12.725800000000001,13.331599999999998,13.998,246.0,233.0,197.0
-12.264999999999999,17.653,12.784200000000002,173.0,120.0,89.0
-11.7676,18.8208,17.4166,156.0,190.0,116.0
-11.2578,21.1921,17.4541,174.0,217.0,135.0
-11.9292,17.688699999999997,17.175,173.0,178.0,142.0
-12.170300000000001,13.5915,31.0026,145.0,182.0,125.0
-11.576400000000001,21.1299,18.0166,142.0,171.0,149.0
-12.1132,13.375300000000001,31.2329,143.0,184.0,123.0
-12.1186,17.5214,13.278699999999999,172.0,125.0,101.0
-12.762799999999999,11.7483,10.641399999999999,113.0,180.0,65.0
-14.5635,20.2746,24.0673,152.0,190.0,130.0
-11.6334,13.1235,31.645899999999997,171.0,194.0,135.0
-11.9406,18.3874,21.2779,161.0,211.0,147.0
-12.4468,17.9571,10.8374,138.0,94.0,68.0
-11.3207,13.6397,31.351000000000003,145.0,179.0,130.0
-11.964,17.752200000000002,21.6772,180.0,202.0,154.0
-12.2616,16.0468,15.029600000000002,201.0,160.0,152.0
-15.198500000000001,15.4965,31.5824,213.0,167.0,148.0
-11.9421,11.569,13.6325,162.0,212.0,134.0
-12.4223,16.9934,19.2765,181.0,133.0,112.0
-11.2297,21.479799999999997,15.962100000000001,178.0,214.0,168.0
-10.426499999999999,13.0951,32.5503,240.0,245.0,254.0
-14.3215,15.796,29.1902,227.0,216.0,220.0
-14.527899999999999,20.078599999999998,23.8114,151.0,191.0,130.0
-11.973,11.4893,13.536599999999998,162.0,225.0,152.0
-11.93,13.0646,31.6676,195.0,218.0,168.0
-12.562400000000002,11.8194,11.9873,123.0,174.0,98.0
-12.7662,12.199,10.538599999999999,141.0,187.0,93.0
-12.762,18.2383,8.3792,197.0,158.0,115.0
-12.4916,19.6243,21.3252,116.0,159.0,101.0
-10.4518,26.0312,16.8898,216.0,218.0,175.0
-11.2704,20.924100000000003,16.7658,175.0,203.0,134.0
-11.2307,13.8795,31.1502,183.0,204.0,160.0
-11.2238,21.424000000000003,17.0647,174.0,201.0,127.0
-14.358299999999998,13.6913,21.5776,251.0,248.0,244.0
-10.6568,25.5176,16.5091,243.0,251.0,255.0
-14.6843,21.1257,21.674,146.0,190.0,116.0
-12.5197,18.0727,6.5882,208.0,182.0,159.0
-11.865,19.1267,17.721,182.0,202.0,150.0
-12.779599999999999,20.892,21.8218,200.0,199.0,155.0
-14.595600000000001,21.2253,21.7223,164.0,186.0,154.0
-12.9095,21.0416,20.9762,163.0,177.0,149.0
-12.4084,18.1765,10.2332,167.0,117.0,93.0
-13.645499999999998,15.7128,26.2411,200.0,151.0,126.0
-12.3247,13.2993,31.2123,147.0,183.0,129.0
-11.7415,20.1322,18.0142,145.0,177.0,142.0
-10.75,23.3983,16.7866,193.0,203.0,159.0
-12.526699999999998,19.7487,20.834,143.0,187.0,101.0
-12.378400000000001,17.9034,20.7637,234.0,236.0,230.0
-13.6219,15.546199999999999,27.0837,198.0,144.0,127.0
-12.5921,19.8806,21.6255,114.0,156.0,108.0
-14.5122,20.674300000000002,22.837,157.0,196.0,141.0
-12.7807,12.6245,11.1272,101.0,165.0,65.0
-11.2339,13.908499999999998,31.219599999999996,147.0,181.0,132.0
-10.722,24.2744,16.3703,167.0,200.0,123.0
-11.289200000000001,20.8343,16.511899999999997,179.0,215.0,153.0
-12.1493,17.7502,14.129,252.0,248.0,248.0
-14.413300000000001,19.4297,24.7163,154.0,193.0,132.0
-14.5588,20.180699999999998,24.4618,253.0,252.0,250.0
-10.9132,23.4822,16.112099999999998,163.0,202.0,121.0
-11.4406,23.473,18.076,144.0,178.0,167.0
-14.2845,14.244699999999998,21.459500000000002,250.0,252.0,254.0
-12.9168,14.2869,30.194,165.0,198.0,147.0
-13.4287,15.8525,26.3956,219.0,183.0,179.0
-12.8475,12.3641,11.5254,124.0,177.0,74.0
-11.8536,18.2192,17.3345,255.0,248.0,225.0
-13.928299999999998,15.475800000000001,27.9148,193.0,149.0,134.0
-13.0411,21.632299999999997,21.9792,151.0,180.0,105.0
-12.7399,12.0702,11.529399999999999,139.0,186.0,113.0
-12.367,16.5901,19.787,204.0,158.0,135.0
-12.703000000000001,20.2808,20.7821,116.0,157.0,99.0
-10.4601,13.0883,32.4996,229.0,245.0,248.0
-12.923000000000002,13.156300000000002,12.6757,88.0,156.0,50.0
-10.7615,23.5175,16.7193,188.0,219.0,164.0
-13.064300000000001,12.745500000000002,14.1015,189.0,208.0,165.0
-15.118300000000001,15.4941,31.907400000000003,243.0,232.0,217.0
-14.648800000000001,20.9728,21.9751,139.0,189.0,104.0
-13.1585,14.8317,21.753,156.0,189.0,109.0
-12.7104,14.752799999999999,21.8903,151.0,180.0,149.0
-13.2081,14.431099999999999,21.8568,131.0,165.0,100.0
-14.9724,15.5908,30.6851,194.0,149.0,136.0
-12.396600000000001,15.018899999999999,29.7763,171.0,200.0,151.0
-13.9226,15.6657,28.4507,233.0,169.0,134.0
-12.812399999999998,12.6138,11.5001,112.0,170.0,76.0
-12.570799999999998,14.392299999999999,30.1566,174.0,196.0,155.0
-13.156799999999999,21.8631,21.732000000000003,255.0,254.0,255.0
-12.3932,17.5088,20.6997,142.0,184.0,132.0
-11.1898,12.8662,32.2314,145.0,183.0,146.0
-12.650400000000001,13.1727,11.0126,165.0,213.0,162.0
-14.157800000000002,17.3725,25.0216,143.0,190.0,120.0
-13.3067,15.548,28.6558,254.0,254.0,254.0
-14.3681,18.7333,23.978099999999998,140.0,194.0,102.0
-12.2575,17.6019,13.278599999999999,171.0,119.0,89.0
-13.0084,21.5702,21.9811,155.0,179.0,108.0
-14.7922,20.5732,22.017999999999997,130.0,182.0,107.0
-12.528900000000002,15.146999999999998,29.609799999999996,161.0,193.0,147.0
-11.515400000000001,14.2389,30.7517,150.0,185.0,127.0
-12.4479,19.621199999999998,21.1313,112.0,164.0,99.0
-13.3125,14.986099999999999,29.390100000000004,151.0,190.0,133.0
-10.5701,24.7275,16.8109,181.0,191.0,131.0
-12.8968,13.1573,12.3252,103.0,163.0,60.0
-14.549500000000002,19.9256,24.5221,168.0,196.0,160.0
-12.7422,12.0646,10.2319,155.0,191.0,105.0
-12.566099999999999,11.8194,11.9172,139.0,182.0,99.0
-14.1677,17.4294,23.9747,254.0,253.0,252.0
-11.3916,20.4778,16.3271,175.0,208.0,143.0
-12.622900000000001,16.555400000000002,21.374499999999998,211.0,191.0,184.0
-12.5561,12.5981,13.261500000000002,121.0,149.0,104.0
-12.4169,16.9893,19.325200000000002,170.0,120.0,102.0
-11.695500000000001,14.815999999999999,30.181599999999996,175.0,198.0,159.0
-12.0169,13.248099999999999,31.3675,191.0,215.0,165.0
-13.074,18.485,7.1861,216.0,177.0,151.0
-14.837900000000001,15.6823,30.2576,204.0,152.0,127.0
-11.2275,21.4302,17.0239,173.0,203.0,136.0
-12.0779,17.146800000000002,18.582,221.0,175.0,144.0
-11.723799999999999,18.9698,16.6706,170.0,186.0,163.0
-12.1458,17.7057,17.1735,152.0,110.0,99.0
-12.0534,17.8353,11.3741,184.0,152.0,117.0
-11.7849,15.124299999999998,29.7091,254.0,254.0,254.0
-12.1311,18.5519,21.397,171.0,207.0,120.0
-12.9126,14.1341,22.1259,136.0,171.0,129.0
-12.1351,18.4606,21.6951,157.0,199.0,107.0
-11.4712,12.8517,32.014900000000004,178.0,203.0,152.0
-12.1779,17.7393,19.7661,163.0,189.0,122.0
-11.267199999999999,20.9288,16.7194,175.0,204.0,136.0
-11.6179,21.2681,18.1222,144.0,170.0,144.0
-13.045300000000001,15.176300000000001,21.7001,166.0,202.0,105.0
-14.7545,13.1777,21.7553,130.0,149.0,121.0
-11.326600000000001,20.9682,17.2166,209.0,228.0,158.0
-12.3127,11.733699999999999,13.638300000000001,184.0,225.0,157.0
-10.471400000000001,13.040199999999999,32.5056,212.0,232.0,234.0
-13.2684,15.1411,29.2009,195.0,200.0,132.0
-12.1394,16.964499999999997,18.4769,180.0,131.0,115.0
-12.5298,16.3796,20.7072,193.0,152.0,140.0
-11.8638,18.5368,17.5031,249.0,242.0,231.0
-12.415700000000001,19.1938,20.1423,254.0,253.0,250.0
-12.723499999999998,20.3933,21.1824,136.0,168.0,113.0
-14.2839,19.270799999999998,25.0083,165.0,201.0,167.0
-11.9245,17.8781,17.0038,242.0,233.0,223.0
-13.376,15.7861,26.1705,218.0,183.0,174.0
-12.2536,17.3009,17.3705,163.0,118.0,103.0
-13.6428,17.535800000000002,25.5704,252.0,251.0,248.0
-11.051400000000001,22.0354,16.2394,181.0,219.0,160.0
-12.562899999999999,12.0745,12.564300000000001,147.0,174.0,137.0
-11.970799999999999,17.241899999999998,17.3229,177.0,140.0,136.0
-12.6842,20.2715,21.0753,141.0,174.0,114.0
-11.5711,14.644499999999999,30.3956,155.0,191.0,138.0
-13.103699999999998,18.802,7.285500000000001,86.0,63.0,59.0
-11.8324,20.4205,18.226,130.0,176.0,157.0
-12.8284,20.779500000000002,22.116600000000002,235.0,254.0,254.0
-12.0326,13.8154,30.818,145.0,185.0,127.0
-11.7434,14.562100000000001,30.3749,160.0,194.0,146.0
-12.8745,20.9538,21.4075,188.0,191.0,148.0
-11.722299999999999,19.893,17.871100000000002,169.0,192.0,136.0
-14.407900000000001,18.925,23.822599999999998,139.0,196.0,95.0
-11.0357,23.6145,15.817,250.0,252.0,252.0
-12.2034,17.7262,20.1509,187.0,215.0,126.0
-12.887199999999998,21.135399999999997,21.628,142.0,166.0,110.0
-11.0346,22.2315,17.3706,176.0,209.0,132.0
-14.6252,20.0879,22.749,144.0,195.0,129.0
-10.7459,12.965499999999999,32.272600000000004,176.0,200.0,153.0
-10.5592,24.9782,16.7354,180.0,201.0,136.0
-10.9147,23.1811,16.2621,175.0,213.0,148.0
-13.4925,14.5423,29.4108,247.0,249.0,253.0
-10.992799999999999,22.2757,16.6729,185.0,217.0,156.0
-12.5332,16.7566,20.2738,195.0,153.0,129.0
-12.359499999999999,10.584100000000001,13.452800000000002,170.0,214.0,144.0
-11.1751,22.0767,15.8607,192.0,217.0,174.0
-14.893600000000001,19.4319,22.3738,134.0,183.0,104.0
-14.5809,19.3738,23.2275,136.0,192.0,99.0
-11.081199999999999,14.2994,31.0089,165.0,197.0,146.0
-14.059,13.9835,21.8093,119.0,161.0,106.0
-12.3568,14.3294,14.4151,212.0,216.0,186.0
-11.179699999999999,12.8546,32.1179,169.0,195.0,139.0
-11.384500000000001,21.3055,17.769299999999998,150.0,168.0,141.0
-11.0038,23.4789,15.8808,195.0,227.0,206.0
-12.776000000000002,20.6447,21.3699,154.0,177.0,125.0
-11.6464,19.526,17.5531,158.0,188.0,122.0
-12.7822,18.1896,6.3184000000000005,183.0,163.0,133.0
-13.217200000000002,15.5372,28.995700000000003,154.0,193.0,140.0
-11.5775,22.617,18.1488,157.0,170.0,139.0
-12.753400000000001,18.2785,8.3131,147.0,101.0,76.0
-13.4621,15.290999999999999,28.997,171.0,198.0,134.0
-12.1418,17.948800000000002,19.9628,189.0,205.0,113.0
-11.310599999999999,22.9846,17.8852,147.0,174.0,161.0
-14.1869,17.4301,24.874299999999998,144.0,187.0,124.0
-11.3514,22.995099999999997,17.9461,143.0,178.0,165.0
-12.4068,17.854300000000002,10.3225,174.0,141.0,99.0
-10.5086,25.094300000000004,16.5224,166.0,191.0,131.0
-12.7833,12.2005,10.624799999999999,140.0,188.0,93.0
-11.4109,13.7822,31.1973,138.0,177.0,123.0
-12.1871,16.9848,15.102599999999999,254.0,251.0,250.0
-12.1148,18.7346,20.277,159.0,156.0,121.0
-12.403400000000001,11.476799999999999,13.6017,179.0,225.0,167.0
-13.1021,11.6388,13.7316,166.0,215.0,144.0
-11.279,24.2744,17.9245,155.0,180.0,167.0
-12.779499999999999,18.0872,8.2787,114.0,77.0,65.0
-12.313699999999999,15.4804,14.846699999999998,183.0,151.0,157.0
-14.3884,15.695,29.874299999999998,254.0,249.0,248.0
-13.1171,18.7383,7.328600000000001,106.0,90.0,85.0
-12.6369,20.2293,21.2813,147.0,172.0,114.0
-12.9389,16.0698,22.7408,182.0,129.0,108.0
-11.3829,20.8277,17.674799999999998,176.0,204.0,136.0
-12.7088,14.6283,29.942,171.0,195.0,151.0
-12.278699999999999,18.9477,19.983999999999998,255.0,254.0,255.0
-12.338799999999999,17.8476,20.5975,171.0,194.0,114.0
-12.3369,17.7593,22.9989,173.0,210.0,141.0
-11.6137,14.236799999999999,30.691200000000002,150.0,187.0,130.0
-12.5426,16.7498,20.0227,200.0,150.0,124.0
-12.0769,17.896,17.781,203.0,158.0,137.0
-11.8704,12.8401,32.0064,190.0,204.0,189.0
-12.2422,19.276,20.7781,129.0,170.0,90.0
-11.2835,21.077299999999997,17.0665,174.0,204.0,139.0
-10.709399999999999,25.424200000000003,17.1101,131.0,164.0,138.0
-13.4532,13.530800000000001,22.1538,130.0,171.0,119.0
-13.806099999999999,15.514800000000001,27.480700000000002,199.0,151.0,135.0
-11.6182,23.3845,18.2122,254.0,255.0,249.0
-13.036700000000002,15.110399999999998,29.424,162.0,196.0,135.0
-12.1142,18.251800000000003,19.3715,200.0,216.0,198.0
-14.538,20.274900000000002,23.6716,150.0,192.0,115.0
-14.5399,20.0232,24.1118,148.0,185.0,131.0
-12.761800000000001,12.4852,13.905000000000001,176.0,219.0,138.0
-11.1723,24.177,17.7701,125.0,173.0,160.0
-12.73,13.495399999999998,30.974200000000003,183.0,198.0,160.0
-13.014100000000001,18.8052,7.910699999999999,133.0,117.0,118.0
-11.178799999999999,21.721899999999998,15.9659,182.0,212.0,165.0
-11.8546,15.2829,29.8429,252.0,251.0,255.0
-11.5372,19.4732,16.4625,169.0,202.0,145.0
-12.867600000000001,12.8594,12.3713,115.0,169.0,61.0
-13.5387,15.9078,26.726100000000002,249.0,245.0,243.0
-12.7361,16.4547,21.5762,174.0,134.0,129.0
-12.3932,17.0898,18.5799,211.0,168.0,132.0
-11.1652,21.9255,17.5658,170.0,202.0,126.0
-14.5119,18.4862,23.4627,148.0,196.0,121.0
-11.5745,22.133,18.2745,146.0,164.0,137.0
-12.909699999999999,14.636,29.887000000000004,180.0,204.0,167.0
-14.0767,15.6873,28.8894,226.0,166.0,133.0
-12.9324,18.894099999999998,7.8768,98.0,86.0,90.0
-11.0001,24.2302,15.983600000000001,254.0,254.0,254.0
-10.639999999999999,26.038600000000002,16.923199999999998,159.0,195.0,185.0
-12.798100000000002,12.0664,10.9778,118.0,174.0,81.0
-13.671700000000001,15.645500000000002,27.936,227.0,201.0,189.0
-12.2491,17.4963,15.6747,222.0,177.0,139.0
-13.2756,14.6455,29.7155,150.0,184.0,128.0
-12.517800000000001,19.773,20.894299999999998,142.0,185.0,105.0
-10.3865,13.342399999999998,32.3143,239.0,248.0,252.0
-11.2229,21.5781,17.5562,181.0,212.0,145.0
-12.6069,15.734300000000001,21.468,253.0,240.0,220.0
-14.513300000000001,18.8793,23.521,128.0,190.0,88.0
-14.281099999999999,17.719099999999997,23.7189,158.0,180.0,129.0
-12.570500000000001,17.9962,9.6722,198.0,175.0,120.0
-12.942300000000001,18.2768,6.626799999999999,163.0,151.0,132.0
-11.6612,14.1259,30.7387,148.0,188.0,130.0
-12.7045,11.549199999999999,10.5293,123.0,185.0,75.0
-12.578100000000001,16.6111,21.4258,254.0,255.0,255.0
-12.5154,16.6958,21.0717,248.0,241.0,236.0
-12.8579,13.8348,22.2175,128.0,162.0,118.0
-11.816500000000001,13.4352,31.305500000000002,139.0,179.0,128.0
-12.2143,17.924200000000003,12.579299999999998,155.0,95.0,70.0
-12.2083,18.0316,6.1048,175.0,136.0,111.0
-12.763,20.671,21.4873,178.0,188.0,135.0
-11.0279,25.1361,17.7582,254.0,254.0,255.0
-14.013,13.2773,22.0673,138.0,178.0,132.0
-13.2248,15.8503,24.879299999999997,224.0,175.0,150.0
-11.446000000000002,13.320000000000002,31.4272,175.0,195.0,112.0
-12.817300000000001,12.4739,11.1514,110.0,169.0,66.0
-12.234,17.5653,15.6252,190.0,141.0,115.0
-11.6487,22.5263,18.3603,150.0,175.0,171.0
-12.565000000000001,19.9692,21.067,121.0,170.0,110.0
-14.3868,18.0246,23.6712,152.0,195.0,133.0
-11.5452,23.575699999999998,18.201700000000002,254.0,254.0,253.0
-14.0154,11.8851,22.7156,138.0,173.0,152.0
-11.2676,12.9868,32.053799999999995,139.0,175.0,131.0
-11.018,23.0712,17.4369,167.0,175.0,144.0
-13.089,15.601899999999999,29.0249,175.0,200.0,164.0
-12.947600000000001,13.155700000000001,13.2302,112.0,167.0,97.0
-10.7887,25.345000000000002,17.3003,134.0,152.0,96.0
-11.9354,13.919500000000001,30.7272,156.0,186.0,143.0
-11.8457,18.4531,20.944599999999998,167.0,190.0,126.0
-11.426,20.1351,16.8603,182.0,214.0,149.0
-14.6313,15.584999999999999,29.777900000000002,187.0,139.0,134.0
-11.275599999999999,14.7515,30.3699,164.0,192.0,158.0
-13.0739,14.2019,30.214800000000004,162.0,193.0,148.0
-11.3483,20.5287,16.9632,184.0,210.0,144.0
-11.9378,17.4391,15.6842,201.0,150.0,126.0
-15.0501,15.470900000000002,31.902900000000002,238.0,230.0,224.0
-13.333800000000002,15.251600000000002,29.111900000000002,176.0,201.0,134.0
-12.4724,18.6815,6.6344,50.0,38.0,38.0
-10.362,13.7857,31.8566,241.0,248.0,254.0
-13.0016,16.0533,22.944300000000002,192.0,140.0,116.0
-12.2652,17.8388,10.3752,135.0,105.0,99.0
-12.3094,11.6755,13.6331,178.0,219.0,150.0
-14.669199999999998,15.5224,30.173699999999997,207.0,159.0,137.0
-12.4478,19.4361,20.2788,138.0,176.0,129.0
-12.1605,19.1845,20.7298,253.0,251.0,246.0
-12.043,17.1683,18.3112,223.0,183.0,170.0
-12.1229,17.3583,16.7796,177.0,135.0,119.0
-13.5113,14.0037,21.9344,155.0,188.0,164.0
-12.120000000000001,17.7473,17.002100000000002,147.0,144.0,128.0
-13.898,16.968700000000002,25.468600000000002,156.0,197.0,124.0
-11.2774,20.8789,16.4179,173.0,210.0,144.0
-14.4691,21.1085,22.5718,212.0,228.0,199.0
-10.9547,13.7265,31.5457,150.0,182.0,128.0
-14.4989,19.8332,24.113799999999998,154.0,191.0,130.0
-13.0855,15.987699999999998,24.4223,204.0,157.0,133.0
-10.9557,22.446099999999998,16.6631,187.0,220.0,157.0
-12.695200000000002,18.0588,8.875,146.0,96.0,77.0
-13.4389,16.0382,25.881700000000002,227.0,212.0,207.0
-12.9095,12.230599999999999,13.8656,176.0,217.0,141.0
-12.859000000000002,12.870000000000001,12.8427,131.0,179.0,80.0
-10.9214,23.28,16.2115,180.0,212.0,144.0
-12.811,13.1698,11.754000000000001,102.0,158.0,65.0
-11.8687,12.881200000000002,32.0496,187.0,196.0,158.0
-11.9255,19.3202,17.9238,208.0,234.0,239.0
-13.8182,16.476499999999998,25.5832,227.0,223.0,212.0
-12.745500000000002,12.965599999999998,11.232000000000001,89.0,151.0,60.0
-12.946299999999999,15.8225,21.2145,247.0,249.0,248.0
-12.1842,18.1618,21.8445,167.0,205.0,129.0
-11.9391,17.4376,14.5792,185.0,139.0,121.0
-12.0557,13.229,13.980200000000002,172.0,191.0,155.0
-10.9671,22.9623,16.1468,174.0,214.0,147.0
-12.549299999999999,12.559400000000002,13.1325,106.0,148.0,94.0
-12.607399999999998,11.8113,9.4773,131.0,163.0,80.0
-13.761000000000001,13.089400000000001,22.2152,126.0,167.0,117.0
-11.0916,13.1604,31.8113,177.0,204.0,153.0
-13.328599999999998,14.144100000000002,29.9564,253.0,254.0,254.0
-13.7544,17.0729,25.5546,137.0,183.0,135.0
-12.0173,13.6488,30.968600000000002,157.0,189.0,131.0
-12.963099999999999,16.1198,23.9465,244.0,239.0,241.0
-13.3716,15.8326,26.2393,240.0,229.0,227.0
-15.101899999999999,15.799900000000001,31.3407,254.0,254.0,250.0
-14.227699999999999,17.5339,24.5243,143.0,186.0,122.0
-12.4766,18.493399999999998,7.0295,150.0,105.0,84.0
-13.491200000000001,16.090799999999998,25.362000000000002,217.0,207.0,211.0
-12.634799999999998,18.013299999999997,7.3197,83.0,73.0,74.0
-12.2942,18.990499999999997,19.974800000000002,255.0,255.0,255.0
-12.9332,18.1201,7.0089,89.0,69.0,63.0
-13.5714,15.6174,26.529000000000003,195.0,149.0,132.0
-12.145999999999999,17.5186,22.1021,185.0,218.0,155.0
-14.9079,12.2466,22.534499999999998,129.0,162.0,108.0
-13.502500000000001,12.169,22.697400000000002,145.0,176.0,147.0
-10.8888,13.164000000000001,32.003,173.0,197.0,147.0
-14.0608,14.1868,21.7054,136.0,174.0,121.0
-10.761999999999999,24.543200000000002,16.1916,184.0,221.0,169.0
-11.4813,14.361699999999999,30.6679,146.0,180.0,127.0
-11.3144,20.715700000000002,16.514499999999998,172.0,205.0,133.0
-14.0146,14.05,21.785899999999998,121.0,164.0,103.0
-11.820500000000001,19.314700000000002,17.7815,138.0,183.0,159.0
-12.1706,17.3978,16.230900000000002,214.0,175.0,146.0
-12.5898,17.5073,23.6454,187.0,209.0,160.0
-10.4653,13.989199999999999,31.654799999999998,252.0,253.0,254.0
-13.583400000000001,15.201300000000002,28.9118,140.0,185.0,97.0
-13.6793,15.8086,27.333800000000004,196.0,167.0,160.0
-10.9656,22.4143,17.113400000000002,189.0,211.0,136.0
-12.5441,16.630200000000002,21.2397,251.0,251.0,252.0
-14.768600000000001,15.8031,30.675,230.0,185.0,174.0
-13.797999999999998,15.625300000000001,28.394799999999996,254.0,253.0,249.0
-12.3482,17.8457,11.874600000000001,162.0,111.0,83.0
-11.8712,18.424599999999998,17.4167,212.0,214.0,185.0
-12.6218,10.6216,13.5968,195.0,231.0,146.0
-10.6928,25.2749,17.0005,141.0,157.0,94.0
-13.833599999999999,17.3158,25.454300000000003,132.0,176.0,119.0
-14.213000000000001,18.4841,24.671699999999998,135.0,188.0,107.0
-12.124600000000001,18.679299999999998,19.9769,174.0,167.0,117.0
-11.505,22.3534,18.1458,142.0,169.0,143.0
-13.8544,18.3191,25.377499999999998,146.0,178.0,156.0
-12.485899999999999,16.4225,20.5316,188.0,155.0,152.0
-13.213,13.734399999999999,22.17,128.0,170.0,127.0
-12.6269,15.5269,21.6341,198.0,207.0,180.0
-12.0393,18.128700000000002,18.6733,250.0,243.0,239.0
-12.805900000000001,12.5132,11.179400000000001,107.0,165.0,67.0
-13.314799999999998,12.9898,22.416900000000002,139.0,174.0,142.0
-12.8056,13.439400000000001,22.2634,191.0,181.0,146.0
-12.2262,16.9818,18.370800000000003,169.0,117.0,100.0
-11.4299,23.430799999999998,18.0674,144.0,173.0,155.0
-11.9289,17.643900000000002,14.275199999999998,248.0,238.0,235.0
-13.370199999999999,15.848,24.881700000000002,198.0,145.0,117.0
-13.3128,15.1855,21.521,127.0,167.0,101.0
-11.321299999999999,12.958900000000002,32.0755,142.0,176.0,128.0
-12.723300000000002,20.5903,21.5233,184.0,197.0,152.0
-12.3193,19.4141,20.9669,106.0,166.0,89.0
-10.691,24.6196,16.2856,164.0,198.0,159.0
-10.8066,24.992800000000003,17.3273,113.0,157.0,133.0
-13.9202,12.0774,22.6459,136.0,172.0,143.0
-14.574000000000002,13.1714,21.8586,211.0,208.0,199.0
-10.5948,26.076300000000003,16.7063,163.0,170.0,136.0
-11.5617,19.6132,17.218,207.0,220.0,150.0
-11.9186,13.6511,31.015700000000002,157.0,187.0,132.0
-11.975,17.3613,16.776699999999998,216.0,170.0,147.0
-12.5711,17.9797,8.2332,127.0,104.0,92.0
-13.3574,15.5807,28.8479,152.0,189.0,150.0
-13.513900000000001,16.0395,25.2301,171.0,142.0,149.0
-11.4403,20.319499999999998,17.5574,183.0,213.0,145.0
-12.199300000000001,17.630599999999998,16.3669,185.0,148.0,131.0
-12.242,17.818,23.1963,182.0,205.0,151.0
-10.966800000000001,12.7386,32.492,123.0,162.0,88.0
-12.570799999999998,18.4932,7.280499999999999,153.0,110.0,93.0
-12.3321,18.090500000000002,8.8269,103.0,67.0,55.0
-13.7904,15.7936,28.0102,244.0,230.0,218.0
-12.8476,16.2466,23.0972,230.0,190.0,168.0
-11.607099999999999,19.7263,17.5956,173.0,196.0,130.0
-13.697999999999999,15.3566,28.094599999999996,249.0,244.0,236.0
-11.1649,13.334399999999999,31.7397,159.0,187.0,141.0
-12.581500000000002,20.041600000000003,21.2769,123.0,165.0,107.0
-14.3508,13.516300000000001,21.8497,114.0,155.0,101.0
-14.5518,21.0853,22.070500000000003,138.0,185.0,116.0
-12.2185,18.264,22.1211,165.0,199.0,127.0
-11.3672,12.7703,32.1397,185.0,203.0,159.0
-12.7435,11.9782,11.421299999999999,134.0,185.0,110.0
-13.668800000000001,14.8458,21.5283,123.0,160.0,94.0
-14.2025,17.5263,23.8702,244.0,245.0,238.0
-12.4794,15.126100000000001,29.646299999999997,175.0,203.0,167.0
-12.0029,18.5972,21.0915,169.0,206.0,110.0
-12.900300000000001,18.870700000000003,7.835100000000001,103.0,92.0,91.0
-13.0733,14.1006,30.3177,163.0,197.0,155.0
-12.318900000000001,15.741,14.9282,169.0,156.0,172.0
-14.4696,12.945599999999999,22.0738,94.0,137.0,73.0
-12.481,14.155100000000001,30.410700000000002,158.0,193.0,144.0
-14.7889,20.6771,21.9272,135.0,183.0,112.0
-13.2859,15.878400000000001,25.474000000000004,216.0,168.0,144.0
-14.140600000000001,14.3102,21.5958,115.0,151.0,107.0
-14.5223,20.2644,23.0833,153.0,198.0,133.0
-14.3203,13.0359,22.106,115.0,159.0,102.0
-13.0184,12.235,13.895399999999999,166.0,215.0,144.0
-12.318900000000001,13.333300000000001,31.1898,152.0,185.0,138.0
-14.613399999999999,21.1804,21.4214,255.0,255.0,255.0
-12.715399999999999,15.0438,29.6458,173.0,202.0,156.0
-13.2248,14.283199999999999,21.922800000000002,121.0,166.0,104.0
-14.285,14.0355,21.468400000000003,254.0,255.0,253.0
-12.751000000000001,20.5338,20.7196,126.0,164.0,119.0
-12.3618,11.037700000000001,13.5351,177.0,219.0,137.0
-14.443200000000001,18.2296,23.6234,155.0,199.0,133.0
-14.224800000000002,15.7487,28.8779,187.0,142.0,120.0
-12.551599999999999,12.7935,13.683300000000001,250.0,246.0,243.0
-12.860199999999999,13.106000000000002,11.972199999999999,95.0,151.0,58.0
-14.5391,15.759300000000001,29.7188,177.0,128.0,106.0
-14.0608,13.0321,22.1507,136.0,175.0,130.0
-15.076999999999998,12.1182,22.6475,123.0,142.0,106.0
-12.2032,17.663,21.8936,189.0,200.0,144.0
-11.673,20.7794,18.1135,136.0,170.0,151.0
-14.3507,18.9251,24.1147,145.0,194.0,102.0
-13.1469,14.8764,21.748,150.0,185.0,102.0
-13.031200000000002,18.2993,6.7804,157.0,118.0,93.0
-13.422899999999998,12.3112,22.648,136.0,167.0,136.0
-11.5796,19.6018,16.2911,255.0,253.0,253.0
-12.9311,13.113199999999999,13.065999999999999,125.0,174.0,90.0
-12.2426,17.655199999999997,21.9508,185.0,203.0,135.0
-11.4907,21.5775,17.9769,124.0,167.0,154.0
-11.527700000000001,19.723499999999998,16.6688,179.0,213.0,152.0
-11.696900000000001,19.1828,17.5118,169.0,194.0,124.0
-14.0064,17.8338,25.2245,140.0,190.0,149.0
-12.5472,13.1846,14.111899999999999,184.0,227.0,152.0
-14.205699999999998,14.175699999999999,21.6158,124.0,160.0,110.0
-13.4964,15.3586,28.727200000000003,183.0,208.0,153.0
-12.2983,18.986900000000002,20.1849,197.0,216.0,171.0
-14.5375,11.843399999999999,22.6908,138.0,149.0,126.0
-14.2955,18.0306,24.2257,154.0,193.0,131.0
-14.5259,20.5816,23.217,149.0,189.0,119.0
-12.9818,11.5439,13.6775,193.0,221.0,152.0
-14.716999999999999,19.0781,22.926099999999998,136.0,189.0,121.0
-14.6595,20.7266,22.061500000000002,188.0,205.0,162.0
-14.4027,15.516,29.241,216.0,161.0,132.0
-12.3363,13.1559,31.4051,138.0,183.0,115.0
-12.9632,13.2357,13.0191,118.0,166.0,80.0
-14.480199999999998,18.4872,23.5752,159.0,202.0,136.0
-12.9131,14.282300000000001,22.0841,141.0,175.0,140.0
-12.9991,16.189600000000002,22.6684,190.0,142.0,116.0
-11.575199999999999,21.7288,18.211,154.0,173.0,150.0
-12.2646,16.6446,19.9774,196.0,134.0,106.0
-12.4199,17.939,11.0724,158.0,118.0,88.0
-10.966199999999999,23.6115,15.942300000000001,165.0,208.0,160.0
-11.1667,12.5938,32.448,240.0,242.0,239.0
-14.427200000000001,19.3295,24.199,164.0,197.0,129.0
-12.7005,12.761,10.884599999999999,98.0,158.0,69.0
-11.5659,13.0897,31.715799999999998,176.0,201.0,150.0
-14.3177,15.4973,29.0325,217.0,166.0,138.0
-12.7462,11.718,10.4207,112.0,174.0,66.0
-11.453000000000001,20.8852,15.9796,196.0,213.0,202.0
-12.573899999999998,12.3644,12.7183,113.0,160.0,115.0
-12.2003,13.5385,14.135100000000001,218.0,218.0,180.0
-11.9874,17.9696,19.2174,253.0,254.0,254.0
-12.5825,14.202799999999998,22.040399999999998,233.0,217.0,199.0
-11.494200000000001,12.996099999999998,31.854900000000004,171.0,199.0,148.0
-11.5668,19.4858,16.908,171.0,211.0,141.0
-12.3103,18.09,6.3734,196.0,167.0,135.0
-12.274000000000001,15.7851,14.9235,194.0,173.0,178.0
-11.1198,22.4961,15.8904,181.0,216.0,163.0
-12.1646,17.6711,15.624699999999999,247.0,246.0,248.0
-12.3512,17.9876,20.7473,254.0,254.0,254.0
-13.1732,12.534899999999999,22.5025,186.0,193.0,175.0
-11.7523,20.079,18.0103,140.0,174.0,142.0
-13.436100000000001,15.5603,28.716900000000003,168.0,195.0,118.0
-12.9272,15.3506,21.6861,171.0,204.0,119.0
-14.6423,18.5779,23.0218,135.0,183.0,102.0
-12.177,17.9766,12.633,254.0,248.0,244.0
-14.7735,15.5156,30.442200000000003,199.0,152.0,136.0
-11.9679,13.744100000000001,30.9054,152.0,188.0,132.0
-10.9819,22.67,17.4603,181.0,209.0,135.0
-11.0292,22.3793,16.1617,178.0,214.0,155.0
-14.6786,15.718599999999999,30.5572,215.0,155.0,135.0
-12.765099999999999,18.0898,7.0142,83.0,75.0,74.0
-12.6475,16.5441,20.5917,173.0,127.0,109.0
-12.2598,17.5363,14.373,197.0,153.0,125.0
-11.4199,20.561799999999998,17.1718,210.0,226.0,161.0
-12.8636,12.634400000000001,12.2405,143.0,184.0,92.0
-10.5722,13.2913,32.2072,144.0,179.0,133.0
-11.838600000000001,18.4344,17.2127,172.0,191.0,116.0
-11.6803,15.2028,29.909200000000002,250.0,251.0,255.0
-12.8736,14.088899999999999,30.395899999999997,161.0,193.0,143.0
-11.9498,18.360599999999998,21.2916,156.0,204.0,146.0
-14.1051,12.1832,22.5682,133.0,167.0,128.0
-12.2209,17.599600000000002,16.278699999999997,192.0,153.0,129.0
-12.6135,14.1103,30.424,165.0,193.0,148.0
-12.185799999999999,18.096,6.1422,196.0,163.0,131.0
-12.2249,15.223700000000001,29.5859,171.0,192.0,153.0
-12.8335,21.136,22.3299,160.0,181.0,124.0
-11.793800000000001,20.1795,18.1125,140.0,178.0,149.0
-12.1118,16.9772,18.4879,182.0,134.0,116.0
-12.2878,19.2518,20.6237,128.0,185.0,93.0
-13.717099999999999,15.395700000000001,28.315800000000003,178.0,192.0,166.0
-14.3764,18.0987,23.8009,148.0,194.0,129.0
-11.7729,17.9062,21.2987,252.0,252.0,249.0
-14.6369,19.878999999999998,22.8781,143.0,194.0,122.0
-14.282,15.5097,29.4332,225.0,175.0,147.0
-13.400300000000001,14.033000000000001,21.9479,129.0,166.0,97.0
-13.4406,16.1208,25.312600000000003,253.0,255.0,254.0
-14.421800000000001,19.38,23.8518,135.0,195.0,93.0
-12.4957,16.5603,20.0538,180.0,131.0,117.0
-12.7673,11.6708,11.0701,119.0,178.0,64.0
-12.8565,12.5047,11.8812,130.0,183.0,71.0
-11.7738,13.2438,31.452,182.0,195.0,139.0
-12.527,16.7033,20.6811,216.0,201.0,198.0
-10.4564,26.030900000000003,16.8997,218.0,222.0,203.0
-11.8653,21.1169,18.3873,251.0,252.0,248.0
-14.688200000000002,13.3244,21.6534,179.0,185.0,184.0
-10.5342,25.5764,16.7206,179.0,182.0,149.0
-13.6333,15.5519,27.5837,184.0,137.0,132.0
-12.9227,13.1122,22.4558,250.0,235.0,228.0
-12.1883,16.8623,18.8477,184.0,142.0,131.0
-12.614700000000001,17.278299999999998,23.6364,240.0,244.0,238.0
-10.6557,24.2441,16.8033,189.0,206.0,146.0
-14.1783,17.2313,24.8181,141.0,182.0,122.0
-12.7998,13.3685,11.6234,101.0,155.0,62.0
-12.5784,12.5623,13.3711,200.0,197.0,180.0
-11.2137,12.879399999999999,32.1874,139.0,177.0,127.0
-12.389600000000002,17.1015,18.745700000000003,178.0,129.0,110.0
-14.469199999999999,15.5053,29.477700000000002,212.0,162.0,135.0
-12.7655,16.4511,22.4356,253.0,253.0,253.0
-11.9913,17.7798,11.9833,111.0,82.0,82.0
-12.2188,13.3878,31.1871,126.0,171.0,115.0
-10.522,12.8552,32.614,211.0,232.0,235.0
-12.2642,17.3918,17.2772,180.0,139.0,120.0
-12.8747,12.9669,12.177100000000001,95.0,164.0,51.0
-13.484099999999998,16.2195,25.4102,251.0,255.0,255.0
-13.6871,17.0257,25.574799999999996,148.0,187.0,148.0
-10.9727,25.364199999999997,17.6462,254.0,255.0,255.0
-12.5548,12.622300000000001,13.9514,196.0,233.0,165.0
-12.1096,17.5232,22.111900000000002,181.0,208.0,146.0
-12.4679,19.658900000000003,20.881800000000002,124.0,175.0,92.0
-13.1978,12.482,22.5168,218.0,208.0,193.0
-11.891,17.4399,17.119500000000002,215.0,161.0,133.0
-12.9695,18.1432,6.9801,81.0,66.0,67.0
-14.7072,12.1372,22.584699999999998,137.0,167.0,136.0
-13.0101,14.2806,22.0564,121.0,161.0,109.0
-12.0617,18.541,21.2855,167.0,202.0,102.0
-13.3121,14.3339,21.8525,134.0,163.0,107.0
-13.867899999999999,18.4819,25.381999999999998,244.0,247.0,244.0
-13.0577,15.332200000000002,21.6206,147.0,181.0,98.0
-10.5141,25.186799999999998,16.865199999999998,196.0,211.0,154.0
-11.229600000000001,14.456199999999999,30.7651,147.0,182.0,133.0
-12.816600000000001,21.3868,22.4137,254.0,254.0,246.0
-11.642,19.3157,16.3986,254.0,252.0,249.0
-10.882200000000001,23.3798,16.3182,174.0,209.0,151.0
-14.546100000000001,15.701799999999999,30.1317,204.0,146.0,126.0
-12.6111,14.7437,21.8291,162.0,183.0,158.0
-12.8587,13.329699999999999,12.1488,97.0,159.0,73.0
-13.1507,13.574,22.250600000000002,119.0,161.0,117.0
-14.014,13.1801,22.101399999999998,132.0,174.0,108.0
-10.8284,12.9027,32.4088,137.0,174.0,122.0
-12.072,17.7565,14.541299999999998,255.0,242.0,231.0
-14.2874,19.1783,24.9223,153.0,190.0,129.0
-13.395999999999999,15.8228,26.2551,216.0,180.0,174.0
-11.175799999999999,13.850999999999999,31.3141,133.0,174.0,120.0
-14.9835,15.9873,30.4964,238.0,243.0,255.0
-13.6569,13.2193,22.2022,113.0,164.0,112.0
-12.934499999999998,16.2988,22.578500000000002,180.0,143.0,131.0
-12.0258,17.197100000000002,17.427999999999997,138.0,94.0,94.0
-13.989199999999999,15.614600000000001,28.9421,254.0,255.0,254.0
-12.479899999999999,14.9518,29.8069,163.0,199.0,154.0
-13.618,13.3981,22.138099999999998,113.0,160.0,100.0
-13.834,15.6484,27.223999999999997,192.0,146.0,128.0
-11.0915,21.7299,16.611,182.0,212.0,147.0
-12.474499999999999,17.899,9.7258,133.0,83.0,60.0
-11.3483,23.5307,17.9983,149.0,178.0,162.0
-12.0593,11.1802,13.505700000000001,159.0,219.0,146.0
-11.181099999999999,21.2296,16.3734,180.0,216.0,156.0
-11.561200000000001,13.2731,31.494100000000003,170.0,199.0,123.0
-13.0214,18.638199999999998,6.9843,147.0,116.0,99.0
-12.7656,12.3749,11.970600000000001,138.0,184.0,104.0
-10.9317,23.6206,16.0109,164.0,194.0,126.0
-12.909,13.1526,12.4741,95.0,158.0,60.0
-12.6052,13.798499999999999,30.666500000000003,180.0,201.0,145.0
-12.4824,18.1869,7.5795,137.0,102.0,79.0
-11.4986,20.1472,17.604400000000002,176.0,204.0,139.0
-11.1218,14.8017,30.2555,254.0,254.0,254.0
-10.4775,26.077499999999997,16.8704,255.0,254.0,255.0
-14.1014,17.326,24.1257,254.0,254.0,254.0
-12.4062,18.029,8.6273,142.0,118.0,99.0
-12.6338,20.3272,21.531200000000002,166.0,179.0,133.0
-12.593099999999998,12.158199999999999,12.8826,248.0,234.0,218.0
-13.8323,15.7836,27.4812,207.0,185.0,181.0
-12.798300000000001,18.099999999999998,8.187,169.0,149.0,128.0
-12.675600000000001,16.4898,22.0256,252.0,244.0,239.0
-13.530100000000001,14.676,29.203699999999998,254.0,254.0,254.0
-12.7918,12.7135,11.4717,103.0,165.0,70.0
-12.428799999999999,12.368500000000001,9.879,173.0,209.0,132.0
-12.713,16.2907,21.2813,174.0,133.0,116.0
-12.773399999999999,12.8111,11.2337,98.0,159.0,61.0
-11.5805,20.0714,16.0795,255.0,251.0,246.0
-12.8778,18.7006,7.6241,126.0,110.0,108.0
-11.218,21.0718,16.5704,180.0,212.0,148.0
-11.5761,20.7231,17.9149,135.0,176.0,159.0
-14.4955,19.8293,23.470299999999998,161.0,198.0,128.0
-12.2277,13.500200000000001,31.063499999999998,135.0,176.0,114.0
-11.3814,24.174699999999998,18.0106,245.0,248.0,248.0
-11.9673,12.0961,13.647899999999998,157.0,201.0,134.0
-12.8661,15.7911,21.421599999999998,123.0,166.0,85.0
-12.8284,21.0921,21.965,142.0,169.0,98.0
-10.9113,23.2741,16.2472,177.0,207.0,143.0
-14.526,20.0172,23.9746,160.0,197.0,146.0
-11.2567,21.491699999999998,17.793400000000002,149.0,176.0,91.0
-13.5819,15.2562,28.860599999999998,140.0,187.0,102.0
-13.2707,13.4384,22.2659,125.0,168.0,114.0
-10.5547,24.929299999999998,16.9528,184.0,190.0,127.0
-11.5893,20.926000000000002,17.9716,140.0,171.0,149.0
-12.238,18.9376,20.1829,188.0,209.0,134.0
-12.072,17.089299999999998,18.0249,159.0,115.0,105.0
-11.3301,20.8796,17.5104,173.0,206.0,133.0
-12.0627,17.4711,13.7263,183.0,135.0,108.0
-14.0769,15.7547,28.5626,206.0,164.0,136.0
-12.548100000000002,12.360100000000001,12.7633,118.0,155.0,110.0
-12.578600000000002,20.2348,21.9251,170.0,186.0,139.0
-11.193,21.6771,17.322100000000002,180.0,224.0,146.0
-12.3745,16.8311,19.0266,172.0,127.0,115.0
-11.9174,17.4928,15.490499999999999,240.0,191.0,157.0
-11.940900000000001,17.6999,12.9722,189.0,144.0,119.0
-13.492899999999999,15.6584,26.8266,204.0,165.0,158.0
-11.9107,18.7116,20.6525,254.0,254.0,254.0
-12.1202,17.722099999999998,14.629,255.0,250.0,246.0
-12.714,15.0865,21.766199999999998,154.0,182.0,146.0
-13.2886,15.9911,25.6196,255.0,251.0,246.0
-13.875399999999999,15.501499999999998,28.4364,222.0,189.0,170.0
-12.8923,13.0167,12.278,92.0,162.0,57.0
-13.5059,15.817999999999998,27.291500000000003,255.0,255.0,255.0
-12.3924,12.1806,13.7629,183.0,221.0,143.0
-12.765699999999999,12.914200000000001,13.8347,251.0,235.0,223.0
-12.479899999999999,18.0858,7.8836,128.0,99.0,85.0
-11.2695,13.214899999999998,31.773400000000002,140.0,173.0,126.0
-11.7523,18.381,17.1801,159.0,193.0,133.0
-12.2107,17.255699999999997,15.234900000000001,135.0,99.0,92.0
-10.956399999999999,13.2781,31.9448,133.0,172.0,124.0
-13.2655,15.954699999999999,24.077299999999997,180.0,125.0,106.0
-11.2708,21.724,15.8087,215.0,226.0,221.0
-12.7111,11.219999999999999,13.664599999999998,183.0,227.0,149.0
-12.659500000000001,13.031699999999999,11.0768,86.0,148.0,51.0
-11.050799999999999,21.8831,16.4115,177.0,216.0,152.0
-11.6723,13.0526,31.811600000000002,145.0,181.0,126.0
-14.475999999999999,19.636799999999997,24.127599999999997,153.0,191.0,123.0
-13.0299,12.9946,22.4469,157.0,176.0,159.0
-12.1073,16.9488,18.9297,205.0,151.0,126.0
-12.826299999999998,14.2983,30.2074,163.0,195.0,145.0
-12.2927,17.7194,12.1828,141.0,93.0,65.0
-10.9054,24.7977,17.497799999999998,159.0,179.0,143.0
-11.3247,20.6705,16.9126,180.0,214.0,145.0
-11.984499999999999,18.5185,21.1552,171.0,194.0,101.0
-12.821299999999999,21.0944,21.8913,146.0,174.0,104.0
-10.6061,25.598100000000002,16.561899999999998,254.0,254.0,254.0
-13.7488,12.6728,22.407,111.0,156.0,107.0
-14.895800000000001,20.072300000000002,22.2268,132.0,183.0,102.0
-12.928899999999999,16.1864,22.3818,193.0,144.0,123.0
-13.120299999999999,15.8999,24.3732,209.0,159.0,135.0
-11.0054,22.1789,16.8645,186.0,218.0,151.0
-12.1058,17.8904,10.7857,118.0,77.0,69.0
-14.549100000000001,20.2267,23.9284,152.0,189.0,129.0
-15.055,15.5471,31.04,194.0,144.0,129.0
-14.3334,15.8276,29.071399999999997,254.0,254.0,254.0
-12.854199999999999,12.9653,12.0197,95.0,164.0,62.0
-12.603200000000001,17.9635,8.5025,171.0,136.0,107.0
-11.877799999999999,20.4802,18.266,198.0,216.0,209.0
-11.9445,18.3222,19.017200000000003,254.0,254.0,254.0
-14.1533,13.2288,22.0725,134.0,168.0,115.0
-12.3025,19.3716,20.8867,107.0,167.0,83.0
-11.6281,19.03,17.2206,176.0,204.0,134.0
-13.4157,15.5505,28.6545,254.0,252.0,248.0
-14.8776,19.7853,22.354499999999998,130.0,183.0,101.0
-11.1242,21.5716,16.270799999999998,182.0,213.0,152.0
-13.1285,16.2551,24.4971,255.0,254.0,253.0
-12.8392,16.039900000000003,23.3308,223.0,173.0,140.0
-12.7704,11.974400000000001,11.2313,124.0,178.0,78.0
-12.1802,17.6076,12.5796,193.0,157.0,128.0
-10.9918,13.8576,31.430799999999998,157.0,190.0,136.0
-13.0659,14.994299999999999,29.509999999999998,169.0,191.0,134.0
-12.6996,12.562499999999998,10.577499999999999,94.0,155.0,60.0
-14.104800000000001,15.776000000000002,28.687800000000003,235.0,223.0,222.0
-10.8866,23.275000000000002,16.3227,176.0,214.0,150.0
-12.237,16.1468,15.060599999999999,228.0,173.0,153.0
-12.2346,17.5958,16.6263,184.0,135.0,113.0
-11.2155,21.073900000000002,16.5134,182.0,216.0,152.0
-11.5032,19.8298,16.42,175.0,199.0,138.0
-13.0635,11.333,13.6654,175.0,219.0,142.0
-13.6229,15.0511,21.3735,135.0,156.0,134.0
-11.8221,20.228199999999998,18.1699,145.0,189.0,166.0
-11.668000000000001,19.1658,16.5085,241.0,243.0,239.0
-11.2519,21.4697,17.7681,192.0,204.0,170.0
-12.784,18.1221,6.926499999999999,118.0,103.0,91.0
-11.595600000000001,19.2263,17.1678,169.0,199.0,129.0
-12.089500000000001,17.759800000000002,16.9376,150.0,161.0,161.0
-14.4125,19.719800000000003,24.7716,181.0,209.0,182.0
-13.5117,15.4402,28.6648,164.0,195.0,127.0
-11.9357,17.6459,13.4411,204.0,154.0,132.0
-12.667700000000002,13.952700000000002,30.569000000000003,164.0,192.0,146.0
-14.5684,11.979,22.651699999999998,159.0,187.0,155.0
-11.4528,20.2716,17.380100000000002,173.0,206.0,142.0
-14.194399999999998,19.129199999999997,25.116500000000002,161.0,194.0,163.0
-11.3157,23.1243,17.8727,127.0,169.0,159.0
-13.967099999999999,17.5766,25.2878,148.0,194.0,130.0
-11.1865,23.924699999999998,17.8163,129.0,173.0,165.0
-12.0839,16.9932,18.6757,163.0,102.0,81.0
-11.622200000000001,14.7569,30.2667,160.0,190.0,142.0
-12.2355,17.2299,18.5567,194.0,136.0,111.0
-12.7802,20.738500000000002,22.1713,207.0,213.0,172.0
-12.105599999999999,18.5495,21.3478,171.0,210.0,112.0
-12.7833,20.834,22.0283,169.0,184.0,132.0
-14.478299999999999,20.976,23.163700000000002,255.0,255.0,255.0
-14.1085,17.927,25.0214,111.0,175.0,92.0
-12.824,15.8441,21.418100000000003,137.0,173.0,89.0
-12.6279,12.0676,9.889100000000001,153.0,192.0,114.0
-13.750399999999999,15.6077,26.943099999999998,182.0,132.0,116.0
-12.7112,14.724799999999998,21.8986,151.0,183.0,151.0
-12.399000000000001,19.1341,20.122899999999998,254.0,254.0,253.0
-10.5366,25.736199999999997,16.657,155.0,169.0,141.0
-14.5893,20.4374,22.5836,146.0,195.0,110.0
-11.07,22.1248,17.1755,201.0,221.0,147.0
-12.107999999999999,17.2123,17.2854,138.0,102.0,93.0
-10.953100000000001,14.346400000000001,31.1383,140.0,181.0,125.0
-14.466000000000001,18.5768,23.6712,145.0,198.0,121.0
-12.4254,16.6896,19.529,176.0,128.0,115.0
-10.9515,23.3788,17.3093,127.0,165.0,141.0
-11.541,19.3729,16.4103,210.0,223.0,203.0
-10.7264,25.782100000000003,17.2609,136.0,169.0,159.0
-11.499600000000001,19.9738,17.3238,187.0,219.0,161.0
-11.940199999999999,18.3089,21.1494,158.0,189.0,102.0
-10.8385,22.8797,16.8141,173.0,209.0,127.0
-11.2929,21.1235,17.7262,164.0,189.0,122.0
-10.723199999999999,24.18,16.4178,166.0,205.0,123.0
-11.1449,22.216,17.653299999999998,160.0,188.0,105.0
-12.7032,18.0116,8.376100000000001,132.0,92.0,78.0
-13.663,14.3411,21.7822,120.0,163.0,106.0
