-9.7309,16.3147,19.842299999999998,186.0,214.0,171.0
-8.008700000000001,20.6491,15.416599999999999,81.0,116.0,83.0
-6.428599999999999,21.481,13.452900000000001,95.0,114.0,85.0
-8.3854,16.6567,7.678599999999999,132.0,100.0,98.0
-6.8993,20.64,13.498,76.0,95.0,52.0
-7.899399999999999,19.8851,13.5034,82.0,116.0,80.0
-10.5404,16.6525,19.2881,139.0,172.0,120.0
-10.773399999999999,20.677899999999998,23.4574,177.0,214.0,171.0
-8.3356,21.3286,16.8339,78.0,126.0,79.0
-8.7368,19.1978,17.5082,145.0,164.0,95.0
-10.2043,15.7695,20.719199999999997,126.0,181.0,141.0
-10.4963,16.220499999999998,11.1609,118.0,145.0,95.0
-10.1065,16.6007,19.2854,119.0,148.0,87.0
-8.841899999999999,18.5193,15.970300000000002,226.0,230.0,221.0
-8.5273,16.782700000000002,7.9611,126.0,121.0,87.0
-6.2459,19.001,10.4245,98.0,125.0,103.0
-7.158200000000001,24.2792,16.8185,135.0,167.0,110.0
-8.8031,17.9819,16.5239,248.0,251.0,249.0
-10.308,17.6005,18.672900000000002,121.0,172.0,151.0
-10.922600000000001,14.860400000000002,14.6318,185.0,219.0,155.0
-9.7736,17.0041,19.7261,169.0,205.0,146.0
-7.7292,21.175,13.714100000000002,99.0,112.0,90.0
-7.4281,20.6475,13.400300000000001,55.0,82.0,60.0
-8.2608,16.3608,6.5292,89.0,54.0,46.0
-7.2065,19.1473,10.1995,141.0,154.0,148.0
-7.7170000000000005,25.1826,17.7242,104.0,150.0,96.0
-9.484399999999999,20.4831,22.7083,163.0,201.0,138.0
-7.265199999999999,18.7431,10.1504,124.0,146.0,117.0
-9.7035,16.439,20.119899999999998,169.0,211.0,168.0
-9.6129,20.353199999999998,21.9361,157.0,188.0,124.0
-7.4807,17.6967,7.7934,61.0,92.0,60.0
-7.2258000000000004,18.4046,9.968200000000001,151.0,182.0,187.0
-10.9956,16.9693,19.1524,134.0,184.0,153.0
-8.693900000000001,23.1087,19.0902,80.0,132.0,75.0
-9.3195,18.2821,16.3655,145.0,179.0,158.0
-9.686,17.464299999999998,8.8435,90.0,120.0,83.0
-7.1933,24.1268,16.8129,138.0,170.0,115.0
-9.3542,15.6938,7.234100000000001,97.0,134.0,77.0
-9.1948,18.6641,18.199199999999998,148.0,196.0,137.0
-7.8043000000000005,20.964199999999998,16.806099999999997,100.0,147.0,78.0
-9.532300000000001,13.9901,7.159699999999999,110.0,145.0,106.0
-9.8802,16.547700000000003,14.377899999999999,254.0,254.0,254.0
-8.2759,25.683600000000002,18.104400000000002,224.0,235.0,230.0
-10.6954,15.3242,14.700199999999999,161.0,197.0,147.0
-6.7101,18.154600000000002,10.047,98.0,129.0,87.0
-8.2645,21.7896,18.8795,96.0,147.0,98.0
-10.6278,20.3511,22.7118,164.0,197.0,119.0
-9.027899999999999,20.1144,16.325400000000002,248.0,241.0,230.0
-9.9324,20.3824,22.400000000000002,144.0,184.0,105.0
-9.388100000000001,17.0171,8.4838,112.0,147.0,90.0
-9.787700000000001,18.0655,18.227899999999998,149.0,174.0,132.0
-10.33,14.8751,14.5141,253.0,255.0,252.0
-8.7879,17.5392,11.05,145.0,89.0,68.0
-8.9848,18.509900000000002,18.279500000000002,144.0,178.0,136.0
-7.7946,25.4438,17.782,119.0,159.0,108.0
-8.5987,16.4925,7.2921,53.0,55.0,57.0
-8.7646,20.0949,19.8077,190.0,193.0,155.0
-7.7069,24.976599999999998,17.7681,101.0,147.0,97.0
-8.5701,22.6242,18.9299,80.0,121.0,78.0
-10.9622,15.656400000000001,20.9453,155.0,195.0,171.0
-8.605699999999999,22.791900000000002,18.962799999999998,92.0,136.0,106.0
-11.0923,15.8545,11.2103,103.0,136.0,93.0
-7.7611,23.136699999999998,18.0182,120.0,160.0,116.0
-9.2107,13.8989,6.822400000000001,125.0,152.0,101.0
-8.2677,21.628,18.8553,103.0,153.0,93.0
-10.0758,20.2625,21.8001,178.0,208.0,148.0
-6.8528,26.090200000000003,16.528200000000002,116.0,156.0,101.0
-10.5505,16.5409,19.3772,130.0,172.0,111.0
-8.1858,25.832,18.1298,254.0,254.0,254.0
-7.2977,23.6904,17.2215,117.0,153.0,110.0
-9.36,16.456799999999998,14.959700000000002,128.0,162.0,121.0
-8.7488,19.9771,19.1529,156.0,176.0,106.0
-9.3821,20.244,21.290300000000002,172.0,209.0,131.0
-10.4799,17.5823,18.4765,143.0,183.0,150.0
-8.4846,20.5883,19.063,139.0,180.0,105.0
-8.963000000000001,18.2214,18.6236,143.0,157.0,98.0
-9.596599999999999,15.237200000000001,7.095400000000001,98.0,129.0,72.0
-9.0018,17.799200000000003,16.9394,152.0,181.0,158.0
-9.1896,17.7151,16.9325,161.0,187.0,165.0
-10.5853,17.454,18.830099999999998,125.0,174.0,143.0
-8.0078,16.9522,7.4862,162.0,179.0,143.0
-7.5712,23.3258,17.7637,123.0,162.0,117.0
-10.1361,20.238400000000002,20.7893,203.0,207.0,150.0
-7.3652,18.6938,10.1321,116.0,141.0,112.0
-9.4119,20.3749,21.3599,146.0,193.0,143.0
-11.1951,16.1524,20.2878,136.0,181.0,124.0
-8.6279,24.7813,18.563399999999998,158.0,177.0,151.0
-8.8421,20.3389,21.6545,238.0,223.0,177.0
-7.0088,25.4386,16.726399999999998,127.0,171.0,123.0
-7.4901,23.3373,17.630599999999998,115.0,150.0,103.0
-11.0391,20.133499999999998,22.3629,247.0,251.0,254.0
-10.584100000000001,16.7948,11.1439,74.0,102.0,71.0
-8.6493,21.174799999999998,19.3389,200.0,209.0,187.0
-10.337499999999999,20.5841,22.9556,176.0,208.0,120.0
-10.1173,16.0869,20.0121,165.0,199.0,179.0
-7.8191,23.9355,18.124599999999997,122.0,163.0,116.0
-10.8627,20.4812,22.870099999999997,170.0,209.0,138.0
-9.968,20.3315,21.604,150.0,193.0,144.0
-10.5343,15.741900000000001,20.7729,150.0,192.0,163.0
-10.559000000000001,16.0894,11.4933,99.0,135.0,82.0
-8.535,20.2929,18.8918,255.0,255.0,255.0
-9.7714,17.1004,14.2262,249.0,252.0,255.0
-11.3324,16.0089,20.5308,161.0,192.0,147.0
-7.7787,17.881700000000002,9.8536,119.0,142.0,96.0
-10.8295,20.8518,23.585,163.0,153.0,110.0
-9.2445,17.7371,14.889199999999999,252.0,255.0,255.0
-9.7639,16.9022,20.2159,153.0,182.0,145.0
-8.9215,15.3449,6.7431,78.0,116.0,56.0
-9.6954,17.3508,19.3781,180.0,209.0,162.0
-10.2257,16.0597,14.5731,104.0,157.0,91.0
-11.634799999999998,15.6841,11.745700000000001,70.0,97.0,52.0
-9.2902,18.2243,16.4252,139.0,184.0,155.0
-9.1821,18.016299999999998,16.6256,137.0,166.0,95.0
-11.4642,16.217100000000002,20.1108,215.0,216.0,200.0
-8.7381,19.730800000000002,18.2025,217.0,203.0,198.0
-10.6242,20.297,22.101699999999997,178.0,209.0,141.0
-7.8944,23.2275,18.238699999999998,123.0,161.0,107.0
-8.0159,20.9743,13.8878,245.0,251.0,255.0
-7.0151,23.3766,16.9104,130.0,158.0,110.0
-8.241999999999999,22.733800000000002,18.6781,117.0,159.0,129.0
-5.4923,19.912399999999998,10.7322,92.0,125.0,77.0
-8.078299999999999,22.905900000000003,18.498800000000003,120.0,162.0,129.0
-9.8491,17.1237,18.9003,133.0,130.0,107.0
-7.943899999999999,18.5224,9.9941,34.0,29.0,27.0
-8.7515,22.1856,19.091,112.0,148.0,106.0
-9.768400000000002,16.9118,19.440099999999997,185.0,209.0,153.0
-9.0853,17.6846,17.0007,139.0,181.0,141.0
-10.0312,17.2865,18.6737,106.0,132.0,77.0
-8.5268,20.2206,15.420700000000002,65.0,102.0,46.0
-9.9571,16.9933,17.7898,153.0,185.0,164.0
-8.2151,23.3792,18.665799999999997,126.0,164.0,123.0
-9.3186,21.292,16.8851,255.0,255.0,255.0
-7.413799999999999,21.218899999999998,13.5723,243.0,230.0,217.0
-7.974100000000001,17.6832,9.6929,114.0,140.0,89.0
-9.2439,16.3972,14.966899999999999,104.0,146.0,64.0
-8.469999999999999,18.9779,15.270800000000001,179.0,191.0,191.0
-8.3078,23.3775,18.7634,109.0,148.0,94.0
-10.1739,20.8749,23.5596,162.0,179.0,130.0
-6.397500000000001,19.0798,10.2217,114.0,122.0,98.0
-7.6242,18.6421,10.1002,116.0,139.0,111.0
-7.4225,22.8402,17.5764,107.0,141.0,92.0
-7.7356,22.0049,16.9889,74.0,102.0,67.0
-10.3307,16.3208,11.6739,121.0,151.0,117.0
-10.4022,17.2865,18.7187,149.0,187.0,153.0
-6.3335,21.284200000000002,13.694999999999999,98.0,126.0,80.0
-8.3261,20.7339,18.9691,112.0,161.0,96.0
-10.1644,17.6998,9.2732,72.0,107.0,110.0
-7.922899999999999,22.2831,18.3232,106.0,146.0,98.0
-6.9741,21.3459,15.5078,172.0,165.0,143.0
-7.6338,23.9343,17.945700000000002,136.0,170.0,121.0
-7.3475,24.3967,17.3361,131.0,165.0,112.0
-11.5867,15.992700000000001,20.4802,184.0,200.0,141.0
-9.1282,17.203599999999998,8.4914,39.0,37.0,40.0
-7.5767,22.889200000000002,17.8073,110.0,147.0,94.0
-9.6138,15.684000000000001,14.818200000000001,167.0,191.0,114.0
-9.483,17.1982,17.8169,177.0,191.0,137.0
-7.1173,23.138,17.0705,117.0,150.0,122.0
-10.108699999999999,20.3543,22.4217,171.0,201.0,143.0
-8.042100000000001,19.7818,15.3644,224.0,231.0,229.0
-9.222900000000001,20.240099999999998,20.7552,152.0,197.0,143.0
-8.141,22.8384,18.5817,114.0,156.0,114.0
-9.7653,17.2968,17.5901,111.0,152.0,132.0
-8.9659,18.5868,18.159,143.0,177.0,147.0
-8.6927,18.8766,15.701300000000002,243.0,233.0,224.0
-9.6874,17.1739,17.7194,167.0,188.0,123.0
-10.1034,16.9156,17.982100000000003,162.0,175.0,118.0
-9.7847,15.548100000000002,20.479400000000002,177.0,208.0,185.0
-7.3643,26.188699999999997,17.168400000000002,121.0,157.0,94.0
-10.4855,16.3098,19.5403,127.0,180.0,108.0
-11.0717,20.644299999999998,23.5408,176.0,190.0,122.0
-7.3629,17.5874,7.946400000000001,58.0,70.0,55.0
-7.5832999999999995,21.124499999999998,15.4102,152.0,168.0,185.0
-7.491200000000001,25.3996,17.3343,130.0,164.0,107.0
-9.589300000000001,14.5325,6.8995,84.0,118.0,68.0
-8.4091,25.5257,18.2267,252.0,253.0,251.0
-7.9784999999999995,19.7491,15.8612,105.0,134.0,77.0
-9.5904,16.9815,8.3864,55.0,55.0,38.0
-8.9796,19.0963,17.627499999999998,208.0,205.0,190.0
-8.9158,17.705099999999998,11.8977,138.0,109.0,97.0
-6.1126,18.689600000000002,10.453800000000001,106.0,143.0,104.0
-7.8722,23.7365,18.2098,117.0,152.0,91.0
-10.124600000000001,16.4673,14.3937,113.0,151.0,125.0
-9.9413,17.3779,9.0723,92.0,150.0,90.0
-10.1391,15.1657,14.5612,145.0,195.0,112.0
-10.323,16.6613,18.1593,253.0,254.0,254.0
-6.9819,21.0919,13.3611,70.0,88.0,64.0
-6.654100000000001,20.4815,13.7522,99.0,138.0,61.0
-10.3531,17.1046,18.7069,151.0,183.0,141.0
-9.0127,21.7088,17.0957,122.0,137.0,114.0
-9.224,20.281399999999998,21.3609,170.0,207.0,144.0
-10.173300000000001,16.618199999999998,14.414299999999999,147.0,173.0,140.0
-10.3422,15.862100000000002,20.5004,138.0,183.0,145.0
-10.4091,17.5525,18.4845,129.0,180.0,148.0
-9.9963,17.0775,17.8151,177.0,195.0,132.0
-9.5863,13.991700000000002,7.2599,103.0,153.0,103.0
-7.3992,23.034399999999998,17.4839,105.0,142.0,93.0
-10.7367,15.8995,20.313100000000002,147.0,190.0,163.0
-5.3355,19.771,10.661900000000001,131.0,157.0,89.0
-11.4861,15.8885,20.5746,247.0,237.0,221.0
-9.9225,15.963,14.6139,135.0,153.0,113.0
-7.538799999999999,25.6389,17.410800000000002,118.0,155.0,91.0
-7.537000000000001,21.782,16.9846,126.0,155.0,128.0
-8.125200000000001,21.4124,15.9133,249.0,252.0,255.0
-9.3861,18.0486,18.7281,134.0,167.0,98.0
-7.1912,18.4378,9.9896,159.0,185.0,181.0
-9.885299999999999,17.6792,16.826900000000002,140.0,179.0,137.0
-7.3688,17.680100000000003,8.1146,81.0,122.0,72.0
-10.6669,20.6116,23.2985,176.0,211.0,165.0
-7.6831,20.6156,16.916,133.0,168.0,127.0
-9.5494,15.780800000000001,7.3396,47.0,62.0,55.0
-8.5161,23.4416,19.008,106.0,152.0,96.0
-9.6715,20.369799999999998,20.7242,254.0,254.0,253.0
-7.3322,21.473,16.927400000000002,96.0,119.0,69.0
-8.5717,21.9567,17.2379,70.0,101.0,53.0
-9.9499,15.684000000000001,20.7121,119.0,113.0,83.0
-9.092799999999999,20.4972,22.4377,232.0,243.0,251.0
-10.8456,15.8446,20.6324,125.0,179.0,135.0
-11.5537,16.0291,11.5756,103.0,137.0,104.0
-9.0557,17.842,14.607000000000001,251.0,255.0,254.0
-8.6686,24.6875,18.61,173.0,194.0,186.0
-10.999,20.1988,22.454,245.0,247.0,241.0
-7.814400000000001,18.6437,10.0712,149.0,172.0,161.0
-8.8063,19.2791,16.4408,249.0,252.0,254.0
-8.959,17.9,12.6941,143.0,109.0,79.0
-9.858699999999999,14.2896,7.3231,125.0,169.0,108.0
-8.144400000000001,22.0029,18.6837,127.0,164.0,114.0
-9.7599,17.005200000000002,19.865099999999998,170.0,203.0,150.0
-10.786,17.2456,18.9821,131.0,180.0,155.0
-9.780999999999999,16.8452,19.3335,176.0,202.0,153.0
-6.356000000000001,19.2121,10.1301,101.0,127.0,90.0
-9.219,17.2909,17.7885,186.0,215.0,212.0
-7.1541999999999994,19.842599999999997,13.803299999999998,120.0,161.0,82.0
-8.201600000000001,16.5991,7.2031,105.0,68.0,59.0
-8.8343,20.2773,19.9591,249.0,247.0,241.0
-8.2513,16.74,7.705299999999999,123.0,101.0,95.0
-7.101,24.1268,16.4721,245.0,247.0,246.0
-9.3793,17.2569,14.7962,155.0,179.0,164.0
-6.1351,21.6886,13.5082,142.0,172.0,130.0
-8.8772,19.9286,16.3346,145.0,163.0,141.0
-8.4862,21.820700000000002,17.0517,98.0,140.0,113.0
-7.6240000000000006,20.677200000000003,15.5055,131.0,151.0,133.0
-7.916399999999999,25.9244,17.8536,102.0,149.0,74.0
-9.020100000000001,17.8999,12.8534,142.0,156.0,94.0
-7.541200000000001,20.603099999999998,13.3056,58.0,81.0,62.0
-8.5422,20.3134,16.496,75.0,119.0,69.0
-7.8286999999999995,21.9921,18.0086,121.0,157.0,117.0
-9.7748,16.9732,10.9679,113.0,117.0,90.0
-9.4042,17.9635,18.4696,253.0,241.0,229.0
-8.7915,16.2356,7.319100000000001,126.0,162.0,123.0
-7.833900000000001,20.6311,13.605500000000001,82.0,103.0,89.0
-8.107899999999999,19.8525,16.5425,91.0,113.0,70.0
-8.4381,21.1859,16.7708,88.0,127.0,89.0
-7.3368,23.1138,17.4096,135.0,166.0,119.0
-9.655800000000001,20.2507,21.412300000000002,165.0,202.0,132.0
-5.8333,19.1001,10.5905,119.0,160.0,122.0
-10.0191,15.6802,20.64,153.0,180.0,130.0
-7.284,23.9196,17.1982,126.0,165.0,105.0
-6.8751999999999995,25.2923,16.511300000000002,161.0,181.0,132.0
-7.292999999999999,25.6851,17.022499999999997,114.0,156.0,100.0
-10.072299999999998,16.801199999999998,10.9908,114.0,125.0,102.0
-9.449100000000001,17.7848,18.7922,168.0,203.0,151.0
-8.6906,19.872500000000002,16.4139,130.0,167.0,128.0
-7.5807,22.2043,17.3916,49.0,92.0,43.0
-8.2145,20.5839,15.379999999999999,60.0,105.0,46.0
-6.0055,21.4848,13.8124,208.0,202.0,164.0
-9.943299999999999,20.2495,21.3122,180.0,205.0,146.0
-9.6549,16.0463,19.853,244.0,227.0,189.0
-9.4969,17.234099999999998,8.6692,105.0,143.0,91.0
-8.872399999999999,18.2673,14.604500000000002,169.0,139.0,109.0
-7.9399999999999995,20.4856,13.6314,76.0,102.0,75.0
-7.3556,26.036399999999997,17.1185,123.0,161.0,108.0
-10.6403,17.1059,19.0775,135.0,185.0,152.0
-8.5827,21.468,19.195899999999998,100.0,145.0,101.0
-6.69,20.691599999999998,13.6523,77.0,110.0,47.0
-8.834200000000001,18.4563,14.4333,255.0,241.0,217.0
-9.636899999999999,17.5848,18.4442,248.0,238.0,229.0
-7.5366,22.1491,17.3648,115.0,130.0,93.0
-8.3087,23.328699999999998,18.7683,108.0,149.0,92.0
-7.5706,22.483800000000002,17.6613,97.0,132.0,73.0
-9.6914,20.3491,21.4144,144.0,191.0,142.0
-10.181700000000001,20.765800000000002,23.404,188.0,204.0,162.0
-7.858999999999999,24.5971,18.0221,105.0,151.0,108.0
-7.66,17.7928,9.8371,110.0,136.0,84.0
-10.7766,20.5899,23.355500000000003,164.0,202.0,143.0
-10.1909,17.7949,18.4722,145.0,188.0,175.0
-8.5677,21.385199999999998,19.2119,107.0,150.0,112.0
-9.2773,17.6697,14.8225,232.0,233.0,226.0
-9.9235,20.3547,21.9844,163.0,201.0,159.0
-8.4312,17.285500000000003,9.6577,120.0,79.0,59.0
-8.409899999999999,20.0183,15.0703,102.0,137.0,104.0
-8.0876,21.3226,16.8343,60.0,108.0,72.0
-10.062899999999999,20.9156,23.4711,234.0,245.0,254.0
-6.2686,18.724,10.4354,103.0,115.0,90.0
-8.5619,20.1205,16.4008,85.0,124.0,88.0
-10.8969,15.6172,21.0367,143.0,184.0,115.0
-6.1345,20.008200000000002,10.3056,122.0,137.0,96.0
-9.3536,15.9432,7.3296,49.0,70.0,62.0
-7.288600000000001,23.738899999999997,17.1948,123.0,162.0,115.0
-9.1968,14.674599999999998,6.5137,87.0,123.0,81.0
-7.298399999999999,19.9109,13.580800000000002,96.0,123.0,52.0
-8.7254,19.9736,19.0033,160.0,178.0,119.0
-8.1381,21.632199999999997,16.9218,57.0,103.0,45.0
-6.006,21.573600000000003,13.7027,255.0,246.0,229.0
-10.700099999999999,17.7581,18.2203,255.0,251.0,237.0
-8.0458,21.3943,18.563,97.0,149.0,112.0
-9.4334,17.4739,8.6336,31.0,35.0,31.0
-8.076600000000001,24.227899999999998,18.3048,122.0,158.0,105.0
-5.9139,19.957900000000002,10.624500000000001,122.0,153.0,111.0
-9.2698,16.222,15.007000000000001,165.0,190.0,168.0
-7.8247,21.3732,18.1452,243.0,236.0,227.0
-8.268,21.8945,18.83,107.0,153.0,92.0
-7.7018,21.3012,13.7934,238.0,244.0,244.0
-9.6095,17.5675,19.2348,91.0,141.0,99.0
-7.824299999999999,26.290200000000002,17.6619,123.0,156.0,124.0
-5.6713,20.0539,10.685400000000001,109.0,149.0,94.0
-8.693,19.5077,17.5231,246.0,236.0,227.0
-9.2811,18.0065,19.0316,181.0,208.0,185.0
-8.4908,17.163999999999998,9.2486,114.0,86.0,74.0
-8.7302,18.9923,13.5888,241.0,233.0,223.0
-7.6379,20.4377,15.7139,115.0,145.0,85.0
-9.4448,17.6593,19.1796,162.0,191.0,131.0
-8.5769,19.3908,13.595099999999999,220.0,214.0,204.0
-9.6386,17.2541,19.7821,152.0,182.0,122.0
-7.4786,21.6925,15.6674,112.0,146.0,103.0
-7.925,21.644199999999998,16.9347,59.0,105.0,40.0
-9.990599999999999,14.685599999999999,7.244599999999999,119.0,146.0,93.0
-10.6449,16.5007,19.436700000000002,146.0,183.0,127.0
-7.321700000000001,17.6076,8.0472,72.0,114.0,51.0
-8.737300000000001,17.583099999999998,11.2032,169.0,98.0,69.0
-9.0242,18.567,17.985,247.0,251.0,252.0
-11.7242,16.1621,11.7371,125.0,147.0,98.0
-7.6735999999999995,20.119799999999998,13.4662,108.0,133.0,75.0
-10.085700000000001,15.976,14.560999999999998,145.0,164.0,118.0
-8.8513,20.0606,20.305699999999998,197.0,200.0,178.0
-6.8638,25.137500000000003,16.3143,226.0,242.0,255.0
-10.5666,15.07,14.735100000000001,156.0,205.0,117.0
-8.4325,23.8391,18.7951,113.0,156.0,121.0
-11.6194,16.0576,11.6499,96.0,125.0,74.0
-8.3669,19.6659,15.7883,255.0,253.0,252.0
-9.7097,17.4127,18.6109,252.0,255.0,254.0
-7.1945,22.7808,17.0298,77.0,108.0,67.0
-9.936499999999999,15.588199999999999,20.7957,154.0,147.0,112.0
-10.273200000000001,16.139300000000002,19.5549,150.0,167.0,121.0
-8.2902,22.7899,18.7345,108.0,150.0,117.0
-10.5015,20.8487,23.5604,176.0,190.0,138.0
-8.634400000000001,21.333,19.3096,147.0,174.0,152.0
-9.8398,17.164099999999998,17.5152,214.0,232.0,236.0
-9.9788,16.846700000000002,14.273299999999999,123.0,168.0,122.0
-9.630600000000001,14.8214,6.969200000000001,74.0,113.0,58.0
-8.588700000000001,21.634500000000003,19.159100000000002,107.0,154.0,124.0
-10.5038,20.905199999999997,23.5186,159.0,179.0,118.0
-9.9353,18.0475,16.4643,212.0,222.0,216.0
-8.071200000000001,21.73,16.9234,71.0,120.0,67.0
-9.995,17.6693,9.062299999999999,36.0,56.0,55.0
-7.995900000000001,18.9315,13.5585,144.0,161.0,162.0
-7.874299999999999,20.9946,13.7656,95.0,114.0,87.0
-10.2099,16.825699999999998,19.056,108.0,137.0,80.0
-11.3153,15.6626,11.2095,99.0,134.0,90.0
-7.1242,24.2815,16.671,116.0,160.0,99.0
-9.9781,16.6076,14.3545,132.0,167.0,115.0
-10.802200000000001,16.697699999999998,19.373099999999997,142.0,173.0,99.0
-8.5543,20.6289,16.6145,78.0,123.0,74.0
-10.3293,20.534,22.889300000000002,164.0,197.0,128.0
-9.5626,17.2928,14.462800000000001,197.0,215.0,227.0
-7.2731,25.490000000000002,17.0056,128.0,167.0,119.0
-9.1429,17.218,14.8263,119.0,154.0,94.0
-9.890799999999999,15.8335,14.724699999999999,224.0,204.0,187.0
-9.8869,20.6173,23.098,158.0,189.0,125.0
-8.7486,19.8776,18.7107,186.0,180.0,145.0
-6.936299999999999,21.4374,13.3336,89.0,114.0,89.0
-10.114099999999999,18.072499999999998,18.1019,142.0,176.0,148.0
-11.5707,15.652,11.5491,92.0,131.0,79.0
-8.0034,17.1054,7.530399999999999,50.0,64.0,33.0
-7.617400000000001,21.055,15.5264,138.0,157.0,100.0
-9.9984,16.8612,18.6826,250.0,240.0,231.0
-8.7825,19.1341,17.3018,207.0,208.0,195.0
-8.0214,19.829,15.4563,127.0,151.0,114.0
-10.2117,16.0105,14.291899999999998,251.0,255.0,255.0
-9.8688,16.6488,11.5879,138.0,164.0,114.0
-9.2418,17.3012,8.4728,30.0,28.0,34.0
-9.0187,15.2412,6.7825999999999995,104.0,145.0,71.0
-7.7843,20.385,16.822799999999997,116.0,152.0,95.0
-7.591399999999999,21.421799999999998,13.7099,241.0,243.0,240.0
-7.1633000000000004,23.031299999999998,17.168,100.0,139.0,101.0
-8.5248,18.6312,13.5651,125.0,164.0,113.0
-7.7353000000000005,20.1262,16.011300000000002,127.0,148.0,95.0
-8.1065,17.6034,9.6292,120.0,138.0,88.0
-9.5042,14.289299999999999,6.791899999999999,89.0,128.0,76.0
-5.759,20.208000000000002,10.7273,109.0,146.0,86.0
-7.5912999999999995,21.6631,15.6669,86.0,115.0,72.0
-10.863299999999999,20.305500000000002,22.1485,179.0,209.0,120.0
-8.5707,22.2794,18.912100000000002,89.0,133.0,97.0
-9.5767,20.4118,21.5087,153.0,196.0,142.0
-9.462,15.033199999999999,6.8844,111.0,150.0,98.0
-9.0735,17.484099999999998,17.3925,168.0,194.0,168.0
-8.3966,19.9347,16.4834,152.0,178.0,165.0
-9.764100000000001,14.2461,7.286,87.0,137.0,67.0
-8.3826,16.4282,6.8904000000000005,69.0,60.0,50.0
-7.8308,19.9489,16.0562,218.0,225.0,221.0
-10.3836,16.4998,11.0768,103.0,136.0,126.0
-9.5605,14.7865,6.8914,60.0,88.0,47.0
-9.528699999999999,17.3897,17.4526,162.0,180.0,120.0
-9.8493,17.1601,18.6667,255.0,254.0,252.0
-9.297600000000001,15.9863,7.3332,48.0,79.0,72.0
-10.0371,17.7617,18.276899999999998,114.0,155.0,113.0
-9.0262,20.3198,21.800800000000002,182.0,212.0,163.0
-10.7737,16.1206,19.9581,136.0,184.0,144.0
-9.0442,17.627399999999998,17.354300000000002,251.0,254.0,255.0
-10.4226,20.558100000000003,23.014499999999998,157.0,193.0,143.0
-9.553,15.5352,7.239800000000001,106.0,148.0,89.0
-8.8444,22.5196,19.1325,166.0,180.0,159.0
-8.6384,18.782899999999998,13.622600000000002,174.0,184.0,158.0
-7.935300000000001,19.9866,15.4088,204.0,212.0,209.0
-9.7591,15.041099999999998,7.1481,94.0,130.0,74.0
-10.685400000000001,16.098399999999998,20.109199999999998,141.0,187.0,144.0
-9.075700000000001,20.1724,16.293,250.0,244.0,235.0
-5.7671,19.8335,10.602,107.0,128.0,67.0
-7.8950000000000005,23.325499999999998,18.2374,142.0,166.0,125.0
-7.9651,22.6417,18.378,100.0,144.0,90.0
-8.2605,21.7313,18.818199999999997,97.0,149.0,92.0
-7.2976,25.6312,17.034399999999998,114.0,157.0,109.0
-8.206900000000001,18.705199999999998,13.4992,73.0,77.0,70.0
-10.436399999999999,16.2602,11.5825,107.0,141.0,95.0
-7.0478,26.0851,16.735,108.0,150.0,89.0
-8.2241,16.7362,7.5152,79.0,53.0,50.0
-8.9886,18.951999999999998,17.982100000000003,233.0,229.0,212.0
-9.9235,18.004800000000003,16.378400000000003,186.0,201.0,170.0
-9.3114,18.137600000000003,16.634,168.0,199.0,192.0
-10.0823,18.0017,18.2264,149.0,186.0,160.0
-7.8576,26.4096,17.6406,254.0,255.0,255.0
-11.1967,16.3677,19.883300000000002,133.0,175.0,126.0
-11.1891,20.2803,23.1404,252.0,254.0,253.0
-11.088099999999999,16.5257,19.5327,150.0,194.0,176.0
-9.6008,17.3504,17.3145,252.0,255.0,255.0
-6.6838999999999995,20.2466,13.7405,138.0,164.0,95.0
-7.6965,20.1483,13.4872,66.0,95.0,75.0
-7.9713,20.5757,15.3246,55.0,92.0,35.0
-9.9725,17.132,8.8855,113.0,130.0,108.0
-8.7959,19.3824,16.9247,250.0,252.0,254.0
-8.1755,21.2203,15.7222,238.0,240.0,241.0
-10.3818,16.4909,11.067499999999999,97.0,129.0,117.0
-8.998299999999999,17.4498,14.7339,224.0,220.0,212.0
-9.8368,16.254099999999998,14.4416,254.0,255.0,255.0
-10.3768,20.458399999999997,22.8991,175.0,208.0,144.0
-10.4214,14.852000000000002,14.582899999999999,244.0,251.0,249.0
-9.0946,18.451600000000003,18.3953,123.0,167.0,127.0
-9.6771,16.245,20.3198,206.0,222.0,211.0
-10.6183,15.650400000000001,14.6275,149.0,186.0,146.0
-9.9839,16.1706,19.6353,128.0,163.0,132.0
-7.0116,24.6886,16.625,122.0,162.0,104.0
-7.6693999999999996,18.300900000000002,9.9828,108.0,132.0,95.0
-8.5601,21.3261,19.2241,105.0,152.0,110.0
-9.542399999999999,17.6621,18.5003,255.0,255.0,255.0
-10.406,20.6249,22.969800000000003,161.0,198.0,121.0
-10.251100000000001,15.6538,20.9501,251.0,245.0,231.0
-7.8947,24.023600000000002,18.1882,118.0,158.0,115.0
-8.313600000000001,20.680100000000003,18.9208,170.0,186.0,165.0
-7.2477,20.4861,13.3268,114.0,133.0,139.0
-9.8391,17.0063,19.027,160.0,167.0,130.0
-10.2146,17.678,18.3129,145.0,183.0,150.0
-7.1254,24.8325,16.8982,119.0,161.0,116.0
-8.1021,19.939,13.6187,83.0,113.0,101.0
-6.5972,21.6611,13.2025,114.0,144.0,108.0
-7.391399999999999,20.7346,13.4021,67.0,94.0,62.0
-10.9849,20.6082,23.3219,184.0,213.0,160.0
-9.0028,17.3172,10.8523,120.0,150.0,76.0
-7.6588,23.4436,17.914099999999998,113.0,155.0,105.0
-8.713,20.229,19.457,253.0,239.0,223.0
-7.5153,26.5827,17.3202,150.0,180.0,156.0
-7.7428,21.64,15.7003,228.0,234.0,238.0
-8.0748,21.4245,15.8628,243.0,249.0,255.0
-7.7305,25.355299999999996,17.7459,132.0,165.0,112.0
-7.5488,21.0344,16.9223,117.0,152.0,119.0
-9.5177,17.14,11.0159,123.0,134.0,101.0
-8.3917,16.426099999999998,7.1117,82.0,87.0,63.0
-8.9498,18.0405,13.2164,174.0,108.0,79.0
-8.8079,18.4966,15.1643,196.0,162.0,151.0
-9.8763,17.3008,11.0049,144.0,163.0,174.0
-9.0647,16.866300000000003,14.8387,124.0,154.0,98.0
-7.1793,22.7907,17.26,96.0,125.0,84.0
-8.7926,18.796499999999998,16.2666,253.0,254.0,254.0
-8.5428,25.3076,18.4056,234.0,246.0,255.0
-7.116899999999999,24.3007,16.7547,111.0,155.0,87.0
-7.786,20.749100000000002,15.5976,108.0,141.0,75.0
-10.1351,20.3616,22.0638,152.0,194.0,139.0
-7.4129000000000005,21.6676,16.6098,225.0,236.0,244.0
-7.489999999999999,21.6735,16.9861,113.0,154.0,127.0
-8.5476,20.6804,16.6243,86.0,134.0,86.0
-7.213500000000001,18.751,10.1371,105.0,131.0,98.0
-9.9788,20.2715,21.7961,163.0,199.0,129.0
-7.702000000000001,22.253700000000002,16.4602,236.0,252.0,255.0
-6.1535,19.6516,10.4625,96.0,136.0,140.0
-7.3034,18.7683,10.1695,123.0,151.0,126.0
-7.7681000000000004,25.1334,17.8119,114.0,154.0,94.0
-8.7783,18.583,15.3584,153.0,103.0,87.0
-9.5054,18.665100000000002,17.778,172.0,187.0,135.0
-9.7616,16.8517,19.4462,189.0,209.0,155.0
-9.278,17.457800000000002,17.624699999999997,166.0,180.0,152.0
-7.2461,22.674500000000002,16.9911,83.0,122.0,90.0
-6.8892,20.3455,13.698099999999998,112.0,150.0,90.0
-10.5768,17.7265,18.4098,152.0,189.0,163.0
-8.8477,20.1969,20.0409,230.0,232.0,226.0
-8.1173,21.3769,15.717300000000002,246.0,250.0,252.0
-8.5412,18.889400000000002,15.1609,250.0,253.0,254.0
-7.1938,24.5398,17.0258,123.0,164.0,98.0
-10.7388,15.565599999999998,20.9941,144.0,190.0,146.0
-9.129,18.502399999999998,18.306,120.0,156.0,144.0
-10.0235,15.3541,14.6867,159.0,185.0,119.0
-10.205300000000001,17.1669,18.904899999999998,126.0,155.0,101.0
-9.6838,16.858600000000003,14.494299999999999,108.0,132.0,100.0
-9.7228,16.974700000000002,14.437700000000001,102.0,103.0,102.0
-8.7488,19.5937,17.6682,247.0,247.0,246.0
-10.9232,17.2127,11.342099999999999,225.0,225.0,213.0
-7.3492,23.6376,17.3399,128.0,158.0,116.0
-11.819,15.820400000000001,11.8177,158.0,164.0,120.0
-11.2303,20.5192,23.4469,238.0,246.0,253.0
-6.786300000000001,20.3843,13.708100000000002,101.0,138.0,69.0
-10.9685,20.1677,21.999,237.0,242.0,254.0
-8.9356,18.417,16.203699999999998,196.0,214.0,193.0
-9.4795,17.592299999999998,19.5571,72.0,106.0,59.0
-8.0991,17.4553,9.5434,106.0,107.0,57.0
-10.1263,16.4711,14.495099999999999,136.0,179.0,141.0
-7.737299999999999,21.5286,16.887,68.0,108.0,66.0
-8.6112,22.0899,19.0201,93.0,139.0,103.0
-10.8284,20.795099999999998,23.8478,152.0,131.0,91.0
-8.930100000000001,18.094099999999997,16.487099999999998,134.0,172.0,137.0
-10.8404,15.2143,14.7018,185.0,210.0,176.0
-10.7445,16.0859,11.0678,132.0,145.0,133.0
-9.2358,18.1751,18.7917,144.0,174.0,114.0
-9.3751,16.7692,14.8927,137.0,170.0,135.0
-9.7629,14.6755,7.142999999999999,89.0,126.0,56.0
-6.8371,25.476599999999998,16.450699999999998,170.0,184.0,137.0
-10.5224,20.3008,22.0003,179.0,208.0,144.0
-7.829,24.5423,18.005399999999998,105.0,149.0,109.0
-9.2346,20.4624,22.4324,167.0,198.0,130.0
-8.6356,21.2346,16.8304,127.0,163.0,146.0
-8.024000000000001,21.328,18.6166,88.0,141.0,99.0
-10.7909,15.4161,21.2308,232.0,241.0,235.0
-8.1292,20.918,18.4368,242.0,250.0,255.0
-8.351899999999999,21.3491,16.877200000000002,67.0,118.0,58.0
-9.2347,17.4515,10.9488,102.0,126.0,90.0
-9.1429,20.3721,21.4434,145.0,188.0,134.0
-9.9287,17.2386,17.6865,149.0,187.0,171.0
-8.659799999999999,21.6993,19.1813,105.0,154.0,113.0
-8.7039,20.1888,19.4687,249.0,250.0,247.0
-10.140699999999999,16.037599999999998,19.8834,149.0,178.0,120.0
-11.182400000000001,16.0832,20.4331,151.0,190.0,151.0
-9.3948,17.9584,16.4896,133.0,172.0,124.0
-8.8369,20.137900000000002,20.0603,222.0,229.0,201.0
-6.458500000000001,19.2592,10.274999999999999,91.0,111.0,76.0
-9.3787,18.648500000000002,17.918400000000002,142.0,170.0,106.0
-9.4345,18.2031,16.233,142.0,182.0,134.0
-10.9402,15.415899999999999,14.6677,253.0,253.0,252.0
-8.094700000000001,18.0092,9.7986,85.0,116.0,116.0
-8.1368,16.433500000000002,6.5636,143.0,117.0,94.0
-10.4381,17.5642,18.7066,137.0,185.0,159.0
-9.4826,14.2345,6.766,81.0,123.0,70.0
-10.0,17.895,18.315,137.0,178.0,142.0
-9.5038,20.6113,22.2362,159.0,195.0,137.0
-10.002600000000001,17.6685,16.8319,142.0,179.0,140.0
-6.8216,26.2438,16.561600000000002,140.0,168.0,101.0
-8.5469,21.144,19.2349,122.0,167.0,112.0
-9.6299,17.3097,19.7763,145.0,177.0,122.0
-7.5333,20.974400000000003,16.9233,112.0,145.0,108.0
-6.5724,18.0698,10.0185,116.0,133.0,91.0
-9.6247,17.464199999999998,11.0642,120.0,143.0,117.0
-9.0838,18.9054,18.078,238.0,238.0,236.0
-8.1416,23.3636,18.5812,101.0,148.0,99.0
-7.738499999999999,20.433799999999998,16.8521,117.0,148.0,95.0
-7.6861,20.6712,16.8906,129.0,170.0,134.0
-10.088,16.7218,11.0396,116.0,122.0,106.0
-8.8588,17.9127,12.2005,222.0,221.0,218.0
-8.8523,15.578,6.9519,99.0,141.0,66.0
-6.8065,25.4943,16.372500000000002,220.0,226.0,218.0
-7.3757,21.390500000000003,15.479999999999999,191.0,209.0,224.0
-5.9705,20.1753,10.5497,117.0,148.0,99.0
-11.0985,16.679,19.413800000000002,151.0,192.0,158.0
-9.883000000000001,17.2122,11.025400000000001,130.0,147.0,145.0
-8.9426,18.1064,13.5048,189.0,126.0,93.0
-9.6036,17.4863,8.8117,84.0,120.0,70.0
-8.698699999999999,20.936,16.6714,85.0,126.0,95.0
-7.6474,26.440599999999996,17.4405,107.0,148.0,93.0
-6.9705,23.3252,16.862199999999998,201.0,207.0,196.0
-10.3797,17.597099999999998,17.1132,178.0,190.0,172.0
-9.7188,16.5381,19.9414,172.0,202.0,147.0
-10.3314,16.3648,14.4489,142.0,171.0,136.0
-10.213999999999999,16.5868,18.336199999999998,212.0,217.0,219.0
-11.434800000000001,16.1239,20.2429,176.0,188.0,125.0
-9.2054,20.119400000000002,20.5626,167.0,210.0,171.0
-8.8841,19.0253,17.6651,252.0,255.0,255.0
-7.100099999999999,24.0805,16.525599999999997,240.0,237.0,223.0
-8.179699999999999,19.752200000000002,16.500899999999998,145.0,173.0,110.0
-6.8346,20.0518,13.8158,183.0,184.0,162.0
-8.0364,24.5311,18.2,112.0,155.0,111.0
-10.5944,16.345100000000002,11.081299999999999,70.0,108.0,61.0
-9.4044,20.3535,21.6378,172.0,197.0,139.0
-7.6747,20.4316,13.486,53.0,72.0,57.0
-7.3161000000000005,24.334400000000002,17.2711,137.0,172.0,123.0
-8.7852,17.7725,11.8075,155.0,88.0,74.0
-5.3953,19.6533,10.607800000000001,133.0,164.0,93.0
-9.5317,17.1485,17.9108,181.0,198.0,142.0
-8.0446,19.645599999999998,13.5185,73.0,100.0,65.0
-8.1553,25.685799999999997,18.0196,117.0,159.0,108.0
-7.8776,22.9889,18.2062,111.0,148.0,101.0
-8.1174,22.2355,18.6135,103.0,148.0,85.0
-9.8497,17.1024,18.932199999999998,132.0,130.0,104.0
-9.6078,14.0262,7.2479000000000005,99.0,146.0,90.0
-8.6343,16.765900000000002,7.984299999999999,125.0,126.0,95.0
-11.0516,15.967300000000002,20.4923,141.0,181.0,117.0
-11.0217,20.1412,22.174,228.0,238.0,255.0
-9.9256,17.1687,17.958099999999998,156.0,180.0,109.0
-8.4701,16.9629,8.4304,67.0,58.0,61.0
-8.2049,19.7496,16.3737,88.0,105.0,54.0
-8.2491,19.8242,13.6582,98.0,119.0,91.0
-8.6455,23.078000000000003,19.104499999999998,90.0,142.0,81.0
-10.3414,15.8431,20.5823,140.0,185.0,142.0
-8.735800000000001,19.1842,16.8598,200.0,167.0,155.0
-7.257,18.9512,10.1722,125.0,148.0,126.0
-8.9115,20.130799999999997,16.3308,109.0,138.0,110.0
-6.197699999999999,19.2281,10.330300000000001,94.0,130.0,81.0
-6.673500000000001,20.93,13.4842,66.0,101.0,56.0
-8.4716,20.817,15.582699999999999,249.0,247.0,241.0
-7.215299999999999,26.4844,17.0102,123.0,161.0,105.0
-8.061,21.7854,18.5513,132.0,176.0,147.0
-7.834199999999999,21.6916,18.0109,123.0,155.0,110.0
-7.4879,22.778399999999998,17.6997,132.0,158.0,114.0
-8.4887,16.518,7.191400000000001,65.0,80.0,69.0
-9.1848,18.3689,18.3722,151.0,177.0,142.0
-10.090499999999999,16.8188,10.9626,120.0,130.0,107.0
-10.2529,17.0751,18.8647,123.0,150.0,93.0
-10.584,15.7015,20.8745,143.0,187.0,154.0
-9.107,15.2411,6.8408,105.0,151.0,84.0
-9.690999999999999,16.450200000000002,19.9754,168.0,202.0,151.0
-9.069199999999999,17.9724,13.108,140.0,168.0,95.0
-7.896599999999999,22.1838,18.2273,117.0,153.0,106.0
-7.9243999999999994,20.3937,13.6007,74.0,100.0,74.0
-11.180900000000001,16.038800000000002,20.2919,172.0,207.0,177.0
-9.3972,17.272299999999998,17.6195,168.0,192.0,168.0
-8.4387,20.4395,15.504000000000001,59.0,99.0,37.0
-11.1077,16.042,11.1565,112.0,142.0,132.0
-6.645,20.4374,13.7651,107.0,147.0,65.0
-8.787,17.7807,16.9073,202.0,218.0,212.0
-6.372800000000001,18.8052,10.325199999999999,100.0,117.0,82.0
-9.1187,16.5527,14.9229,189.0,177.0,134.0
-9.2515,16.9149,8.286100000000001,76.0,95.0,53.0
-8.529200000000001,18.9243,15.3548,213.0,204.0,193.0
-9.851899999999999,15.8398,14.6586,218.0,191.0,165.0
-10.5321,17.0915,18.875700000000002,142.0,180.0,135.0
-7.582,25.5332,17.5113,115.0,160.0,102.0
-6.1932,20.0747,10.231300000000001,136.0,140.0,106.0
-8.7378,19.1825,16.7603,217.0,201.0,195.0
-7.301100000000001,22.1574,16.672600000000003,123.0,147.0,143.0
-9.9191,20.6429,23.1334,160.0,190.0,129.0
-10.1741,17.5144,9.349599999999999,111.0,145.0,81.0
-9.1957,16.6994,14.825199999999999,135.0,150.0,118.0
-9.7217,17.1007,19.7773,169.0,205.0,151.0
-6.565300000000001,18.721799999999998,10.107099999999999,119.0,131.0,114.0
-6.9631,23.3134,16.9041,146.0,181.0,153.0
-9.980799999999999,20.9122,23.4944,243.0,247.0,255.0
-10.9203,20.5155,23.098399999999998,182.0,213.0,135.0
-9.3208,17.3013,14.813799999999999,158.0,184.0,170.0
-9.0604,21.2204,16.8505,104.0,138.0,102.0
-9.7829,17.8548,16.9899,134.0,165.0,151.0
-9.7012,18.070700000000002,18.354,144.0,174.0,123.0
-9.5721,17.2756,8.7295,129.0,163.0,130.0
-6.6736,19.7547,10.3476,132.0,160.0,147.0
-9.872300000000001,18.3342,18.0866,154.0,178.0,132.0
-7.1463,19.3381,10.2197,154.0,171.0,172.0
-8.2405,24.7496,18.2837,119.0,161.0,112.0
-8.802200000000001,17.852999999999998,12.1357,147.0,108.0,98.0
-10.8861,16.6491,19.3448,148.0,190.0,147.0
-9.8636,20.5647,22.7795,154.0,185.0,125.0
-8.966899999999999,20.3513,16.4825,167.0,171.0,169.0
-6.285200000000001,21.079600000000003,13.816400000000002,114.0,136.0,72.0
-10.0405,17.0885,17.8117,180.0,195.0,137.0
-9.9358,17.9564,18.3461,138.0,175.0,150.0
-8.759500000000001,18.8428,15.966,165.0,105.0,84.0
-8.1755,21.3828,16.8529,56.0,105.0,46.0
-9.0397,15.557099999999998,7.0184,112.0,156.0,87.0
-7.2397,23.4606,17.197000000000003,115.0,147.0,112.0
-6.592099999999999,20.4377,13.799600000000002,114.0,147.0,69.0
-11.4067,16.7289,19.4313,233.0,253.0,255.0
-9.264899999999999,20.251,20.785,135.0,189.0,125.0
-6.999700000000001,20.9369,13.4242,61.0,77.0,61.0
-7.1129999999999995,18.1059,9.9563,104.0,137.0,94.0
-10.0441,17.4029,17.2053,143.0,174.0,140.0
-10.2523,17.4739,17.4796,249.0,253.0,255.0
-9.779200000000001,17.3581,17.3746,156.0,173.0,111.0
-6.8731,19.549500000000002,10.323,133.0,152.0,139.0
-10.7457,15.4585,21.2265,172.0,202.0,185.0
-7.7491,20.240099999999998,15.773200000000001,113.0,147.0,90.0
-9.5382,20.4407,21.77,189.0,214.0,155.0
-9.6983,15.4283,7.2866,117.0,156.0,103.0
-9.052399999999999,15.9293,7.2659,112.0,155.0,107.0
-7.5237,22.193199999999997,17.0036,65.0,106.0,72.0
-6.4704,18.3693,10.2162,114.0,137.0,99.0
-9.8941,17.918300000000002,18.1415,155.0,174.0,143.0
-10.587399999999999,17.4053,18.881899999999998,129.0,178.0,154.0
-9.8075,17.2598,17.4361,133.0,174.0,162.0
-8.043899999999999,19.6969,15.7213,145.0,169.0,127.0
-8.1791,17.808699999999998,9.6672,118.0,145.0,118.0
-10.0099,20.252100000000002,21.204,171.0,203.0,136.0
-8.7664,15.7044,6.952800000000001,65.0,103.0,48.0
-7.5912,21.1315,13.639100000000001,120.0,133.0,126.0
-11.7582,16.0059,11.7165,103.0,138.0,88.0
-9.733500000000001,18.1934,16.348599999999998,156.0,172.0,147.0
-10.031600000000001,17.374100000000002,9.1457,81.0,140.0,66.0
-10.0195,16.7224,18.012,170.0,196.0,176.0
-10.2366,16.808400000000002,18.3059,229.0,234.0,226.0
-8.6417,19.9779,16.4217,125.0,159.0,124.0
-9.153500000000001,18.1111,18.818099999999998,138.0,179.0,138.0
-9.882,16.5526,14.3427,254.0,255.0,255.0
-9.9964,18.0928,18.1434,143.0,170.0,126.0
-9.508,14.8385,6.8832,98.0,128.0,76.0
-7.62,22.1511,17.223399999999998,79.0,117.0,55.0
-8.652999999999999,20.1047,15.4409,154.0,158.0,140.0
-9.4512,13.8322,7.1015999999999995,185.0,183.0,169.0
-10.2712,20.823900000000002,23.4098,254.0,254.0,254.0
-10.4416,17.316100000000002,18.705199999999998,149.0,186.0,151.0
-5.8731,18.7924,10.409799999999999,126.0,142.0,83.0
-10.9295,20.6419,23.4682,171.0,199.0,140.0
-8.7928,18.9817,16.6019,236.0,218.0,212.0
-11.3663,16.7603,19.2942,152.0,180.0,163.0
-11.4229,15.9651,20.6189,231.0,231.0,231.0
-9.026399999999999,18.7555,17.9664,150.0,191.0,151.0
-10.8876,20.293,22.259,176.0,206.0,117.0
-7.5891,19.5369,13.5423,117.0,130.0,106.0
-9.077399999999999,17.8754,16.7731,134.0,179.0,144.0
-9.3546,17.3824,17.7146,211.0,220.0,212.0
-9.5913,17.1131,8.630799999999999,98.0,132.0,87.0
-10.1146,16.3637,19.5025,126.0,153.0,101.0
-10.016,16.714599999999997,11.144,92.0,104.0,75.0
-7.3185,24.0312,17.2703,132.0,168.0,110.0
-8.1733,20.8873,18.851499999999998,110.0,153.0,106.0
-10.9938,16.2087,20.0322,151.0,192.0,157.0
-10.1816,17.2116,11.0384,127.0,152.0,152.0
-10.3522,17.6554,18.368499999999997,143.0,181.0,146.0
-9.478399999999999,17.4783,8.6784,58.0,81.0,46.0
-6.9849,25.426900000000003,16.7023,125.0,168.0,119.0
-8.8294,18.3753,14.5207,237.0,237.0,236.0
-6.9482,26.142300000000002,16.6785,108.0,150.0,74.0
-9.9782,17.1627,11.046100000000001,124.0,134.0,126.0
-9.9714,16.6442,11.548300000000001,67.0,105.0,58.0
-11.771099999999999,15.451899999999998,11.9823,134.0,148.0,124.0
-7.4421,22.0961,17.0075,126.0,167.0,146.0
-7.4128,21.4178,16.6738,248.0,253.0,255.0
-7.993,22.686600000000002,18.3913,101.0,148.0,85.0
-8.0979,19.7358,13.5747,96.0,124.0,114.0
-9.4908,18.386,18.2862,156.0,198.0,172.0
-7.9593,17.579,9.674900000000001,122.0,142.0,90.0
-8.7203,23.640800000000002,19.217000000000002,248.0,252.0,253.0
-8.160499999999999,17.8861,9.7501,108.0,138.0,140.0
-8.2202,16.73,7.4656,84.0,61.0,59.0
-10.3923,17.1878,11.1479,119.0,148.0,126.0
-9.774,20.4902,22.3526,158.0,190.0,135.0
-9.711,17.4872,17.207800000000002,159.0,179.0,108.0
-10.2589,17.9333,18.1722,146.0,180.0,146.0
-7.8008,20.1554,15.7248,124.0,144.0,100.0
-8.165600000000001,20.627000000000002,13.733500000000001,249.0,252.0,255.0
-7.244599999999999,18.121399999999998,9.970600000000001,117.0,147.0,116.0
-7.6238,25.391399999999997,17.5647,110.0,150.0,91.0
-10.8622,20.711199999999998,23.5199,168.0,193.0,146.0
-8.7266,20.9228,16.6928,103.0,143.0,114.0
-6.5385,19.6641,10.4105,139.0,168.0,164.0
-7.6331,23.7883,17.908099999999997,120.0,156.0,101.0
-10.5361,20.839,23.4191,211.0,212.0,187.0
-6.984999999999999,20.0333,13.854700000000001,103.0,127.0,75.0
-9.4673,20.2954,20.855,174.0,202.0,138.0
-9.7459,18.0072,18.3588,125.0,159.0,108.0
-6.0244,19.2871,10.5046,96.0,131.0,104.0
-6.9977,20.3724,13.6439,86.0,120.0,58.0
-7.371999999999999,21.3193,16.7335,145.0,155.0,150.0
-9.1402,21.8394,17.0821,148.0,140.0,131.0
-7.086099999999999,23.8287,16.4737,229.0,243.0,255.0
-8.9767,18.1895,14.912600000000001,244.0,251.0,255.0
-9.8217,15.6021,14.721799999999998,184.0,177.0,159.0
-9.341099999999999,16.8624,14.849499999999999,129.0,159.0,120.0
-9.7802,17.8138,16.6351,145.0,178.0,141.0
-8.6367,20.5259,16.5705,85.0,131.0,82.0
-9.0808,18.2973,18.6225,154.0,189.0,158.0
-8.614700000000001,15.997900000000001,7.095999999999999,71.0,103.0,57.0
-10.8514,16.1951,20.0275,151.0,187.0,124.0
-7.2902,20.2947,13.4405,66.0,92.0,51.0
-6.936100000000001,26.7313,16.6031,141.0,173.0,138.0
-9.3305,18.0523,19.072300000000002,156.0,181.0,165.0
-7.1786,23.5373,17.0601,120.0,153.0,117.0
-10.1258,20.2468,20.9089,236.0,235.0,220.0
-10.1358,17.035800000000002,11.0949,66.0,88.0,52.0
-7.3736999999999995,22.4135,17.2289,64.0,112.0,66.0
-11.2851,16.3446,19.9139,139.0,176.0,127.0
-10.7764,15.9023,20.4836,116.0,173.0,121.0
-11.081299999999999,16.322400000000002,19.9327,134.0,182.0,135.0
-9.6222,15.7424,14.785799999999998,129.0,161.0,84.0
-10.9961,16.0671,20.3422,136.0,182.0,140.0
-9.588199999999999,20.2465,21.5551,179.0,211.0,143.0
-8.3913,20.811,19.0368,129.0,181.0,103.0
-9.6706,15.853,14.7368,130.0,155.0,155.0
-8.6842,20.6262,16.6388,120.0,159.0,139.0
-9.6691,17.549899999999997,11.025500000000001,105.0,128.0,131.0
-9.0944,17.799699999999998,16.865199999999998,132.0,179.0,143.0
-7.6768,21.0104,15.4137,116.0,147.0,89.0
-7.553700000000001,20.7643,15.379999999999999,247.0,239.0,231.0
-8.8566,18.4483,15.3635,251.0,251.0,253.0
-7.588399999999999,21.6258,15.6269,109.0,137.0,110.0
-10.0464,15.1845,14.4675,206.0,219.0,204.0
-10.0235,20.2741,22.105900000000002,164.0,203.0,135.0
-9.733600000000001,17.3951,18.7344,182.0,198.0,158.0
-8.5899,22.8807,19.0415,77.0,118.0,51.0
-8.7572,18.990299999999998,16.4374,178.0,120.0,98.0
-6.5412,21.7491,13.1578,129.0,154.0,126.0
-8.1828,16.6193,6.9571,84.0,61.0,57.0
-7.919700000000001,20.8355,16.431,242.0,250.0,255.0
-8.720600000000001,22.573,19.0453,68.0,113.0,52.0
-9.434099999999999,18.2713,16.319200000000002,134.0,167.0,141.0
-7.2672,17.8964,9.8019,114.0,137.0,89.0
-9.6977,17.207900000000002,19.8775,171.0,189.0,145.0
-7.973199999999999,21.0394,15.110199999999999,255.0,255.0,255.0
-7.3332,24.735599999999998,17.2482,120.0,159.0,100.0
-9.1176,20.383200000000002,21.8592,171.0,196.0,135.0
-8.5478,20.0701,16.481299999999997,97.0,135.0,94.0
-8.0676,25.2868,18.080099999999998,120.0,163.0,111.0
-9.5909,17.884900000000002,16.5779,134.0,177.0,121.0
-7.976,20.2149,16.714100000000002,128.0,161.0,109.0
-7.9514000000000005,24.784200000000002,18.0824,109.0,152.0,103.0
-9.3589,20.3637,21.3967,161.0,194.0,140.0
-7.2727,23.982,17.1569,120.0,157.0,95.0
-9.897,20.4832,22.5075,148.0,187.0,116.0
-7.8651,18.1555,9.8926,124.0,150.0,117.0
-7.5145,20.2238,16.129099999999998,165.0,173.0,154.0
-10.7314,17.2124,11.2276,146.0,169.0,139.0
-9.434,18.1537,16.2684,135.0,182.0,144.0
-8.3433,22.0194,17.1325,63.0,105.0,52.0
-6.9296999999999995,25.4426,16.6214,125.0,167.0,122.0
-8.334900000000001,20.5555,16.3032,246.0,248.0,255.0
-10.482,20.380200000000002,22.256600000000002,169.0,211.0,153.0
-8.6369,18.8797,15.369299999999999,247.0,250.0,254.0
-8.6922,21.97,17.3045,77.0,108.0,65.0
-8.9903,18.0506,13.3075,173.0,116.0,88.0
-9.7447,20.8649,23.2395,244.0,248.0,255.0
-8.5924,20.622799999999998,19.186700000000002,143.0,174.0,82.0
-9.975000000000001,16.570999999999998,11.6405,127.0,156.0,114.0
-8.421199999999999,21.8639,17.1149,96.0,133.0,95.0
-9.3927,14.0761,6.759900000000001,99.0,125.0,101.0
-5.527200000000001,19.6305,10.6963,100.0,135.0,84.0
-11.089599999999999,15.9827,20.47,135.0,174.0,113.0
-7.464600000000001,21.889,16.5164,246.0,249.0,255.0
-10.386199999999999,17.483,18.7682,140.0,187.0,165.0
-9.6911,16.858,11.5883,139.0,153.0,107.0
-7.3219,22.474800000000002,17.1464,80.0,116.0,80.0
-9.924199999999999,15.8241,14.644099999999998,162.0,157.0,112.0
-10.4742,15.878999999999998,20.501,129.0,179.0,141.0
-8.8735,19.6843,18.6343,254.0,254.0,251.0
-10.879,20.2909,22.051299999999998,203.0,213.0,172.0
-9.8938,17.8051,18.4465,130.0,161.0,111.0
-8.8376,17.4631,10.786900000000001,107.0,76.0,66.0
-7.0478,26.303700000000003,16.7408,104.0,148.0,92.0
-7.843999999999999,21.6255,18.0188,116.0,150.0,107.0
-8.145199999999999,21.3823,16.8319,58.0,104.0,47.0
-7.9147,23.9831,18.2244,113.0,154.0,111.0
-9.9262,20.2513,20.9921,166.0,196.0,124.0
-8.0198,17.4962,9.6383,107.0,118.0,60.0
-8.9898,18.2068,14.9602,244.0,250.0,255.0
-9.9307,16.0019,14.5791,137.0,158.0,118.0
-9.8811,15.024299999999998,7.2726,121.0,155.0,106.0
-10.9129,20.264499999999998,22.5529,181.0,206.0,130.0
-9.8491,15.801200000000001,14.7431,221.0,179.0,160.0
-7.5658,24.5382,17.6222,109.0,148.0,90.0
-7.183299999999999,19.8748,13.6971,126.0,155.0,98.0
-10.8766,15.6,21.0925,128.0,183.0,121.0
-9.041599999999999,20.134900000000002,16.2991,232.0,228.0,220.0
-9.8033,18.3798,17.8203,154.0,177.0,133.0
-7.7223,24.4342,17.8559,120.0,156.0,107.0
-5.9928,21.7331,13.690199999999999,160.0,170.0,114.0
-8.727500000000001,20.177999999999997,19.6612,231.0,217.0,194.0
-7.1685,25.3934,16.915399999999998,125.0,167.0,114.0
-9.15,18.128800000000002,16.5139,137.0,174.0,120.0
-10.5035,17.429100000000002,18.862000000000002,130.0,177.0,152.0
-10.0739,14.7801,7.1907,40.0,47.0,25.0
-8.833499999999999,19.7546,18.9591,253.0,254.0,253.0
-9.9062,18.014499999999998,18.27,145.0,188.0,165.0
-8.039200000000001,21.1817,15.5993,102.0,138.0,90.0
-9.2917,14.530899999999999,6.6135,80.0,102.0,74.0
-10.6596,20.2181,21.3084,237.0,243.0,255.0
-9.0744,18.028,16.7391,167.0,199.0,196.0
-9.6724,16.5074,20.28,177.0,200.0,166.0
-9.7293,16.6538,14.5283,141.0,153.0,133.0
-10.3833,15.945300000000001,20.3345,150.0,185.0,142.0
-9.5889,15.367600000000001,7.170400000000001,105.0,139.0,76.0
-7.260800000000001,21.7938,15.6942,132.0,147.0,106.0
-9.687,18.157899999999998,18.243000000000002,146.0,173.0,125.0
-6.6075,20.2668,13.756699999999999,145.0,168.0,84.0
-7.145600000000001,22.9585,16.7997,249.0,238.0,232.0
-7.584200000000001,19.9956,13.470199999999998,96.0,123.0,109.0
-11.097999999999999,16.9268,11.4724,87.0,113.0,72.0
-7.2919,23.3428,17.2904,111.0,146.0,108.0
-8.7896,21.2868,16.8743,125.0,169.0,160.0
-8.7356,19.0811,16.4546,209.0,185.0,175.0
-11.3353,16.0192,11.4,117.0,143.0,119.0
-9.6239,16.006500000000003,14.8871,152.0,175.0,138.0
-9.831900000000001,16.717000000000002,14.3928,110.0,138.0,104.0
-7.4961,22.2831,17.4377,124.0,149.0,104.0
-7.555000000000001,20.4377,15.826799999999999,131.0,163.0,99.0
-8.5338,24.7203,18.5003,113.0,154.0,98.0
-10.3199,20.369699999999998,21.6002,151.0,189.0,162.0
-9.2183,17.1399,14.8597,111.0,145.0,105.0
-7.531899999999999,24.2823,17.6647,131.0,167.0,122.0
-7.3669,17.9681,9.876100000000001,104.0,137.0,101.0
-5.8088,19.1575,10.564,84.0,121.0,75.0
-7.2172,24.4896,17.0673,125.0,166.0,109.0
-10.4252,17.605,18.544900000000002,129.0,179.0,149.0
-8.3749,20.0368,16.429299999999998,238.0,251.0,255.0
-7.4161,21.7726,15.7739,182.0,188.0,170.0
-9.6606,18.4692,18.0928,144.0,172.0,123.0
-9.950299999999999,18.0342,18.2786,150.0,182.0,152.0
-8.2964,16.743,7.8001000000000005,131.0,90.0,77.0
-9.8373,16.4738,14.4588,247.0,254.0,253.0
-7.9551,23.0827,18.327199999999998,127.0,164.0,115.0
-8.6034,16.9458,8.2096,38.0,36.0,37.0
-7.366599999999999,24.0806,17.3643,120.0,161.0,104.0
-7.688300000000001,22.1861,16.445999999999998,253.0,254.0,254.0
-7.769299999999999,23.9332,18.0711,127.0,166.0,123.0
-8.6994,20.819499999999998,16.6618,151.0,185.0,175.0
-8.7021,18.9777,16.2081,184.0,143.0,116.0
-8.1688,20.383200000000002,16.4161,242.0,250.0,255.0
-7.331300000000001,21.7827,16.971600000000002,85.0,119.0,73.0
-6.6925,21.5508,13.3288,127.0,144.0,119.0
-7.9025,21.6194,17.7742,102.0,142.0,89.0
-10.978499999999999,14.8921,14.646700000000001,191.0,215.0,166.0
-7.988099999999999,20.678,16.676299999999998,99.0,145.0,68.0
-8.3316,21.976599999999998,18.8543,91.0,140.0,86.0
-8.828999999999999,18.1611,16.3599,147.0,169.0,160.0
-11.1134,20.6529,23.6071,188.0,197.0,196.0
-7.230200000000001,22.8093,16.9252,141.0,173.0,168.0
-8.7977,17.8738,16.7271,126.0,155.0,120.0
-7.408399999999999,19.0477,10.1449,124.0,158.0,152.0
-8.6317,20.3427,19.1709,151.0,159.0,122.0
-8.2026,20.497899999999998,16.3278,242.0,250.0,255.0
-7.6638,24.1842,17.876,110.0,148.0,95.0
-7.6160000000000005,17.8432,9.8544,101.0,133.0,96.0
-10.0144,16.2154,19.764599999999998,213.0,218.0,195.0
-8.8049,19.6909,18.509700000000002,214.0,178.0,167.0
-10.3681,15.9665,14.5739,124.0,172.0,123.0
-9.836599999999999,15.3976,7.328600000000001,51.0,73.0,61.0
-7.2749999999999995,21.4905,15.434500000000002,74.0,114.0,51.0
-7.5858,21.174,16.8804,116.0,151.0,126.0
-5.5106,19.659399999999998,10.7289,99.0,139.0,97.0
-10.2976,20.512900000000002,22.8348,154.0,185.0,115.0
-9.2186,17.2065,14.834700000000002,143.0,177.0,143.0
-9.3749,17.2086,18.0007,116.0,166.0,124.0
-10.0471,18.2007,18.0478,131.0,163.0,123.0
-10.6378,17.255699999999997,18.9969,122.0,167.0,139.0
-7.4975,20.8874,13.4764,115.0,112.0,92.0
-8.043,20.8814,18.6307,248.0,252.0,255.0
-8.7806,19.48,17.9164,198.0,159.0,144.0
-9.8353,17.4126,17.369699999999998,112.0,155.0,138.0
-7.8735,22.187,18.1726,122.0,156.0,109.0
-7.3364,24.9326,17.1955,116.0,157.0,97.0
-8.8009,20.088,19.9543,180.0,187.0,144.0
-9.396,15.6214,7.2128,96.0,138.0,71.0
-9.4132,15.753400000000001,7.290000000000001,117.0,156.0,108.0
-10.774000000000001,16.858999999999998,11.2654,86.0,112.0,79.0
-9.075,20.9233,16.7517,149.0,172.0,155.0
-10.1079,20.3445,21.7109,146.0,191.0,134.0
-8.5104,16.5433,7.3683,36.0,32.0,34.0
-10.4437,16.2604,11.3012,118.0,147.0,94.0
-5.7828,19.9394,10.5705,104.0,132.0,76.0
-10.1229,20.274800000000003,21.3617,187.0,209.0,151.0
-9.6286,20.7894,23.0994,245.0,249.0,255.0
-8.606300000000001,20.005899999999997,16.453899999999997,117.0,153.0,121.0
-10.781699999999999,15.7602,20.846799999999998,125.0,171.0,116.0
-10.0886,16.9269,11.2612,67.0,85.0,66.0
-10.6861,17.6093,18.537100000000002,148.0,178.0,137.0
