-5.9447,16.9542,22.1615,146,174,105
-7.3645000000000005,23.890798999999998,29.150999,251,254,255
-5.8612,19.6925,24.025699,141,104,96
-5.6017,19.674399,28.052300000000002,184,203,173
-4.7521,21.4091,23.8306,253,253,252
-9.5295,22.322300000000002,36.873001,140,191,111
-8.6863,22.1066,35.832101,148,194,107
-6.7185,22.842499999999998,30.239999,152,185,112
-8.6404,27.061998999999997,44.228699999999996,254,254,254
-6.2542,15.579499,23.826900000000002,190,215,194
-5.4505,17.0293,27.653499999999998,150,195,131
-6.935,21.89,33.013999,254,253,250
-6.8663,24.861,40.090299,183,172,156
-5.4608,23.463599,23.0534,174,216,165
-5.8625,20.7064,23.9464,172,202,159
-5.9662,22.906999,33.579999,158,141,113
-0.7272,22.4558,40.755001,208,224,165
-5.7307,17.6451,27.7179,167,201,140
-6.6218,21.7857,35.197201,255,254,253
-6.8219,24.7951,40.374801,242,251,255
-12.0058,26.5668,31.638101000000002,165,207,133
-7.3224,18.497901,18.1841,253,253,253
-6.844600000000001,16.7162,22.8751,144,182,132
-7.3049,21.919900000000002,33.136401,255,253,241
-6.5939,16.3206,23.181599,136,171,111
-9.302399999999999,23.336101,16.5198,140,195,108
-8.4169,24.656101,29.658699,148,195,103
-8.9899,22.164799,35.723999,145,196,109
-10.0523,26.348901,31.534001,183,206,145
-5.8446,14.931899000000001,27.397099000000004,253,252,249
-6.018,23.6384,36.280599,236,228,233
-11.8043,26.177901,32.018101,167,206,134
-5.9737,22.8458,33.690399,166,148,128
-6.5436,16.7633,22.366600000000002,254,253,252
-11.477500000000001,29.530700999999997,44.526899,159,153,151
-10.578700000000001,22.022100000000002,39.923199999999994,177,196,136
-2.6152,23.3649,39.849299,208,220,167
-8.595500000000001,22.012401,40.7159,197,200,177
-8.5972,24.468899999999998,33.3065,170,209,145
-5.2153,24.2706,22.736099000000003,255,255,254
-9.4819,22.28,35.567501,143,188,106
-5.9758,22.9425,34.0866,193,177,141
-6.844600000000001,24.628399,39.542499,214,157,123
-8.0054,25.260901000000004,28.908199,164,194,155
-5.9255,19.700401,24.3389,198,141,116
-10.2577,28.584799,43.953201,104,105,110
-10.5443,22.0732,41.199601,200,192,184
-7.6129,23.4225,33.722699,155,189,138
-7.398299999999999,18.776999,18.0508,188,178,163
-7.716000000000001,16.4325,27.560299999999998,251,245,233
-8.4641,23.524700000000003,41.236900999999996,179,187,146
-8.2149,23.840301,30.289701,127,181,104
-10.0464,24.6547,33.218399,244,233,208
-7.8475,23.3217,41.147101,187,196,141
-6.7663,19.0441,20.8893,182,111,96
-10.2593,26.036199999999997,29.743901,254,252,245
-10.086599999999999,22.388101,37.070799,151,194,123
-6.7998,18.986,21.018,201,132,111
-6.2435,16.590100999999997,22.7394,154,193,116
-6.6289,19.0961,21.8005,217,146,114
-9.2782,22.2076,35.371801000000005,139,192,103
-10.5241,22.3363,37.830001,160,199,141
-2.0385,22.977,40.019399,207,222,160
-7.2297,18.3806,17.2438,250,246,241
-8.2779,19.7303,18.328001,246,252,255
-8.4847,22.5509,41.040301,201,203,160
-11.2341,29.2568,44.828001,134,125,127
-5.2043,23.514098999999998,23.145001,168,216,145
-7.5989,13.8777,27.493399,181,194,158
-10.3368,22.347,37.0666,167,204,147
-7.2875,21.999299999999998,33.875301,157,205,105
-5.6549000000000005,19.743,25.200999000000003,179,132,125
-4.1546,22.8237,38.2873,254,254,254
-6.0721,23.588499,36.435401,254,254,253
-8.7196,26.885101,44.496199,185,184,168
-6.8524,15.238399999999999,27.313301000000003,155,200,105
-7.5558,16.015799,27.574399,166,195,131
-10.0019,25.700699999999998,30.047899,195,211,165
-7.68,24.811999,32.7499,181,197,132
-8.9503,22.3244,17.184199,155,204,130
-5.5944,23.4568,22.886901,235,236,229
-9.995099999999999,27.962199,44.814,172,160,123
-12.4001,26.449001,31.524199000000003,245,244,239
-4.8012,24.3516,23.036601,155,201,109
-6.3667,21.9576,34.6789,251,254,254
-6.2263,23.6909,36.734799,237,225,219
-9.8589,22.224800000000002,17.354999,190,196,176
-3.4534000000000002,23.0322,39.082101,192,212,156
-6.7445,18.094499,20.891299999999998,138,189,105
-9.373800000000001,22.604499999999998,17.0826,137,177,134
-7.2767,17.6125,21.633799,217,215,178
-7.3311,18.1834,13.481099999999998,212,180,161
-11.154300000000001,26.056701,32.1428,162,205,118
-7.1844,18.492299000000003,7.9387,85,66,56
-7.244000000000001,18.559401,17.682999,160,118,92
-6.181699999999999,14.574000000000002,27.483800000000002,252,253,253
-5.5302999999999995,20.943998999999998,29.293001,210,201,210
-6.0746,23.3582,35.792899,254,254,254
-2.5051,21.9778,39.286399,219,207,152
-5.9478,23.1168,33.761701,139,131,128
-8.7879,25.518,29.280499,147,196,99
-6.9843,21.8878,35.3259,151,190,125
-5.571899999999999,20.1979,27.932700999999998,162,156,158
-8.6813,22.105099,35.277799,147,197,113
-5.0543,23.4211,38.194001,253,250,244
-6.2104,24.021401,37.965700000000005,175,117,116
-7.6977,22.6188,41.042,254,252,247
-5.597300000000001,20.1441,27.874698999999996,179,170,150
-9.758799999999999,22.9192,17.138401,139,180,126
-8.7475,25.088501,32.866201000000004,163,209,143
-8.6237,22.8099,16.9356,158,208,121
-9.606399999999999,28.093299,44.205600000000004,121,97,85
-7.943300000000001,24.319499999999998,33.349201,173,214,148
-6.841,17.810100000000002,21.222099999999998,143,186,105
-3.0225,23.3137,39.555499,204,215,160
-8.2443,21.9243,36.912599,255,255,255
-10.146700000000001,21.340699,40.5047,157,145,93
-8.9116,22.5115,17.1276,167,211,135
-9.3332,22.233699,37.423300999999995,148,187,163
-7.6197,13.2952,27.376898999999998,255,255,255
-6.5497,15.775400000000001,27.306601000000004,159,199,110
-9.4643,26.199298999999996,29.295099,139,180,87
-5.57,21.4945,30.233400999999997,225,225,234
-4.1511,23.902699,23.2868,222,237,237
-10.4931,28.874701,44.429401,122,110,110
-5.6962,21.466099999999997,23.755499999999998,169,206,145
-9.657499999999999,25.3429,30.054799,132,187,105
-9.199200000000001,23.0848,16.6649,145,198,116
-6.3507,21.9668,32.805800000000005,234,193,163
-10.0348,21.6298,40.002900000000004,165,178,128
-6.376999999999999,17.693301,21.2927,149,190,116
-6.818499999999999,22.133499,30.491599,185,187,131
-8.347100000000001,22.7422,16.9613,158,203,132
-8.9279,26.085201,28.786299,238,238,215
-11.4876,21.864900000000002,40.2491,214,198,183
-9.6703,26.486799,28.9906,174,203,137
-9.6497,23.1646,16.583499,150,194,148
-7.362100000000001,18.4853,17.7853,222,191,179
-6.9190000000000005,17.010599000000003,22.7181,142,201,165
-7.9634,24.296300000000002,29.7005,146,199,120
-2.1444,23.4365,40.223600999999995,215,215,148
-7.367,20.925801,17.528299999999998,254,254,254
-2.7121,22.4722,39.2905,196,213,136
-1.71,22.073400000000003,39.740601,209,221,156
-7.1634,23.1958,29.986399000000002,178,207,149
-5.8766,20.9567,23.846801,183,217,174
-7.1534,24.3084,33.1907,235,245,240
-6.1466,15.4862,23.8958,241,249,254
-6.3529,16.797601,22.452199,150,186,95
-7.7829,25.900000000000002,43.7381,175,170,173
-8.458400000000001,24.1796,41.064100999999994,241,189,171
-7.6946,13.561,27.254098999999997,243,244,255
-5.6899,21.760099999999998,30.446699,255,255,255
-10.247399999999999,21.5239,40.761101,188,181,163
-10.9275,21.7086,41.129698999999995,177,194,195
-5.9435,16.582599000000002,27.4737,164,205,146
-9.2552,25.316101000000003,29.7207,188,215,152
-7.634499999999999,25.793298999999998,43.5835,234,225,227
-6.2478,16.2654,23.125899999999998,143,192,109
-7.9357,22.595000000000002,16.565999,212,224,250
-5.5968,20.345099,28.071299,199,152,140
-4.3087,23.4576,23.342,170,213,165
-5.899,15.036801,27.3617,169,201,169
-8.7315,22.1513,36.588499,143,193,123
-8.7417,23.5678,41.266099,187,189,157
-1.1905000000000001,22.6328,40.474199999999996,212,222,171
-8.3019,24.2635,29.9124,144,189,116
-9.826699999999999,26.4685,29.3713,154,199,110
-10.177200000000001,27.931099999999997,44.8686,252,246,234
-8.6468,22.875300000000003,41.217101,190,201,151
-7.236,18.0052,15.960199999999999,179,174,170
-5.4634,22.042701,32.4323,148,146,163
-7.5112,18.296801,12.988301,194,133,101
-6.6635,23.7507,33.6151,245,254,255
-5.4117,24.087501,38.347501,200,184,179
-9.1142,24.016000000000002,30.5439,170,189,196
-12.4977,26.914901,31.245601,167,209,140
-10.2716,28.525700999999998,44.775999,114,84,68
-8.6829,22.106899,35.030699,141,192,105
-5.9599,22.9028,33.985200999999996,191,171,147
-9.871,22.313701,17.314699,227,217,206
-7.0507,18.7154,19.7138,195,144,111
-8.0808,23.272499,30.565900000000003,128,172,122
-6.1346,17.198100999999998,21.8527,146,184,114
-9.251199999999999,24.510001,33.296901,165,209,119
-5.6139,21.757001000000002,31.333899,204,155,133
-1.5513000000000001,21.6499,39.824799,231,190,161
-4.7052,24.163498999999998,23.0995,169,209,126
-11.5397,25.6953,32.3194,171,209,148
-5.7457,21.401899999999998,23.7721,171,207,148
-11.4917,25.7503,32.323399,175,214,150
-8.4523,24.1767,41.1102,181,190,139
-7.5196,23.2794,40.979200999999996,182,144,110
-9.7159,22.2866,35.356398999999996,170,183,111
-5.3502,22.2517,23.479,170,210,146
-5.7523,19.648699,25.174901,237,211,204
-6.392,21.964100000000002,32.821399,233,188,156
-9.2201,25.894298999999997,29.348701,140,191,101
-6.0338,19.5254,22.9517,255,255,255
-7.3263,18.2943,17.241400000000002,253,252,251
-6.5352,22.248,30.517501000000003,164,191,136
-8.1538,24.1478,33.473399,163,207,136
-9.8464,22.2183,17.302001,253,254,253
-2.0805000000000002,23.155700000000003,40.056601,206,213,142
-7.213,18.117900000000002,14.9923,250,248,247
-9.3661,22.2498,37.417701,139,188,139
-9.690999999999999,28.1216,43.890299999999996,251,255,255
-5.6531,23.764899,38.191599,196,168,161
-8.744,21.773300000000003,40.5644,198,193,164
-7.556100000000001,23.5774,41.0413,183,195,127
-6.611300000000001,18.9675,21.3514,247,238,229
-7.145700000000001,18.561199000000002,19.031799999999997,255,255,255
-7.108499999999999,17.7268,27.434301,252,255,255
-5.7959,22.821601,33.315399,189,183,134
-8.6674,27.082399000000002,44.280201000000005,249,230,222
-10.2559,26.4007,31.4338,203,211,172
-9.4068,24.543899,30.402699,255,248,234
-6.869699999999999,18.6132,19.7551,255,255,255
-9.5942,27.8712,44.704899,178,159,137
-5.6384,19.819300000000002,26.540601000000002,251,251,253
-7.5882000000000005,23.679,41.0725,180,200,124
-5.6547,19.948199,27.589899000000003,242,249,255
-5.648000000000001,19.281100000000002,28.001001,178,209,128
-10.600999999999999,22.322400000000002,39.6988,191,203,174
-8.8247,24.0311,30.439000999999998,110,159,86
-7.4689000000000005,24.485599999999998,29.190999,157,190,126
-8.9461,21.5775,17.436101,147,195,127
-2.1218,23.7128,40.378699000000005,255,255,255
-5.9545,24.0839,37.928501,252,253,254
-6.8636,24.5919,39.744299999999996,238,223,212
-2.3743,23.020699999999998,39.8121,209,222,161
-9.1447,22.159198999999997,37.3712,181,210,212
-4.7673,23.0179,23.3564,164,214,141
-7.3915,16.2898,27.510199,174,204,150
-7.1897,21.9713,33.1734,237,229,211
-10.1814,21.5648,39.894801,154,170,121
-7.3058,18.6014,18.386,214,176,164
-6.2613,22.4003,30.023,173,180,137
-9.1035,22.1783,17.232899,138,188,125
-8.118699999999999,24.5746,29.573801,155,201,120
-5.947100000000001,16.223501000000002,23.2757,223,237,232
-6.2937,19.1829,27.7839,245,244,238
-5.7543999999999995,21.6576,23.6663,162,201,148
-5.6074,21.942700000000002,33.2082,255,255,255
-7.756399999999999,19.181199,18.355601,186,200,145
-5.1986,18.5756,27.829900000000002,179,204,176
-9.9391,27.658298999999996,44.689399,253,220,199
-4.0247,22.616,38.396499,255,252,245
-8.2369,20.002,18.218598999999998,142,184,111
-8.6743,26.973000000000003,44.4309,155,140,138
-8.0688,23.439699,30.487999,151,177,97
-5.8121,19.709601,23.9576,152,121,99
-8.3963,23.9729,41.152999,185,192,136
-9.202399999999999,22.578899999999997,17.0792,159,204,139
-6.8839999999999995,17.0606,22.563399,111,170,71
-8.2002,20.410500000000003,17.663699,255,255,254
-5.856,16.3508,23.224901,251,255,255
-7.7378,22.7249,41.052400999999996,196,192,150
-8.8848,22.254199999999997,34.413099,170,210,122
-10.3283,28.662699000000003,43.930398999999994,113,108,118
-5.6082,21.868099,23.6201,165,205,152
-8.1597,24.6096,29.557401,151,197,115
-6.5483,18.512601,20.4081,229,238,220
-7.389900000000001,24.5544,32.780001,253,253,254
-8.9461,23.4285,41.286701,190,184,157
-9.410599999999999,24.3415,16.111,163,206,145
-5.6782,23.196299,23.0317,179,218,166
-4.2271,23.718201,39.110499999999995,203,208,169
-7.3252999999999995,24.238799999999998,29.279399,153,194,94
-8.549900000000001,22.984301,16.7568,149,171,118
-8.1537,20.9765,17.5715,145,200,99
-7.936,21.9842,35.120299,157,200,113
-10.3888,21.4178,39.802,182,203,162
-10.962299999999999,21.936899,39.302599,200,190,167
-5.5142999999999995,19.954,25.983199000000003,233,231,234
-7.617,24.6593,29.0999,178,194,181
-7.7462,15.1253,27.539101,168,205,153
-4.1189,25.244799,22.9385,249,254,255
-9.830400000000001,24.4634,33.2894,241,224,191
-9.9091,25.334200000000003,32.7631,158,202,125
-6.014,22.183301,30.3738,255,255,254
-5.7755,19.3919,28.023200999999997,190,222,178
-6.987699999999999,17.4926,21.778101,170,193,139
-7.6423000000000005,22.6844,41.001200999999995,253,248,239
-7.2507,18.3485,16.8826,179,154,149
-4.3524,23.5071,23.343199000000002,170,213,154
-5.9216999999999995,22.881,22.7975,80,70,66
-7.4801,18.1931,13.797200000000002,203,134,96
-9.9169,21.3221,39.9867,205,172,153
-5.7524,21.3193,23.7975,170,205,145
-8.799,24.32,33.4497,173,210,135
-8.1568,21.022999000000002,17.555100000000003,146,202,110
-5.6561,22.5491,32.9395,179,187,134
-8.2088,26.105499,44.640201000000005,250,254,255
-9.831900000000001,26.893201,28.940299000000003,250,250,246
-6.445099999999999,22.751699,29.764599000000004,238,238,243
-7.452100000000001,19.721,18.060499,170,197,148
-6.9842,22.622700000000002,30.520001,153,188,144
-9.3145,24.646698999999998,30.349000999999998,118,174,73
-6.5318000000000005,21.9566,34.114098999999996,150,198,117
-6.1936,15.675101,27.314498999999998,172,208,159
-7.7467999999999995,23.520599,33.685699,254,252,248
-0.7348,21.746499999999997,40.463099,233,211,192
-1.8041,23.3725,40.386,215,208,171
-7.444000000000001,23.5479,33.723800999999995,167,204,121
-4.856,21.2295,23.860899999999997,254,254,255
-6.3233,24.187,38.191399,222,224,201
-6.651400000000001,16.6866,27.4185,184,218,174
-8.3027,23.716301,33.674600999999996,249,254,254
-6.3843,16.2798,27.369300000000003,164,203,138
-12.8635,27.020100000000003,30.797601000000004,254,254,254
-5.8381,21.973599,33.569899,247,253,254
-3.689,22.595100000000002,38.663799,202,214,164
-8.778500000000001,21.556900000000002,40.4212,255,242,224
-6.0502,15.281500000000001,27.322200000000002,165,205,149
-7.217899999999999,18.295801,7.639799999999999,118,81,67
-8.0925,22.042,33.6638,169,194,120
-6.0775999999999994,21.937101000000002,30.473899999999997,182,205,162
-6.8555,23.543701,33.7634,176,213,127
-10.5585,21.465801000000003,40.596199,179,187,118
-8.9877,21.889301,40.688401,202,201,181
-9.6212,28.035,44.3611,116,109,112
-7.026000000000001,18.830299,18.950599,244,251,254
-6.0296,16.904700000000002,22.267599,132,178,97
-5.5714,20.0562,25.934699,249,250,252
-5.486400000000001,20.816198999999997,28.923899,254,254,255
-11.468499999999999,21.851200000000002,39.3774,189,219,190
-7.2379,25.394601,42.137598999999994,221,207,206
-10.7963,26.591900000000003,31.380299,154,191,106
-7.427599999999999,25.7397,43.121099,151,136,125
-2.1662,23.3602,40.153101,216,217,150
-8.3849,22.0816,34.572199,157,205,125
-11.551599999999999,26.1011,32.0943,169,210,136
-8.057300000000001,22.747301,16.7594,254,253,249
-5.576,20.299500000000002,27.393001,190,157,164
-5.9641,23.5001,35.344499,251,253,254
-6.1828,18.6313,27.824101000000002,166,209,155
-10.673,24.988,33.060801,245,242,252
-9.0374,22.2037,36.9726,143,188,111
-7.3637,18.239900000000002,13.8796,170,99,69
-9.444700000000001,25.214601,30.005699000000003,129,187,99
-7.358199999999999,17.9649,14.635600000000002,254,254,253
-1.254,22.8773,40.589499,214,219,171
-9.11,22.1965,37.143901,140,187,106
-10.8804,21.593200000000003,40.625599,178,179,113
-10.8299,22.036998999999998,40.156999,200,220,168
-7.4308,18.043301,14.779700000000002,244,233,229
-2.1579,23.1185,39.992498999999995,205,211,144
-9.3832,27.323600999999996,44.491401,156,139,115
-7.1464,24.244501,33.226698999999996,203,229,217
-9.6522,26.1911,31.827699999999997,172,212,152
-1.7774999999999999,23.1139,40.2592,202,203,161
-6.948799999999999,16.4818,27.4299,168,203,135
-10.4879,21.630399999999998,40.263399,170,195,141
-7.6623,22.9435,30.5931,115,163,89
-6.714199999999999,24.601699,39.1911,181,159,135
-1.8533000000000002,22.627699,39.9257,207,212,162
-7.116899999999999,25.4614,41.9384,214,214,219
-9.5129,26.1013,29.343501,191,212,143
-7.9969,23.5623,30.321199,191,215,171
-9.6782,22.2075,35.173100000000005,248,245,243
-8.2519,24.0549,33.537999,172,209,140
-5.5609,22.076598999999998,31.852901,196,147,115
-10.1501,26.332399000000002,31.731001,166,204,149
-7.224600000000001,25.427898999999996,42.439600999999996,253,253,253
-10.874699999999999,28.772600999999998,45.088499999999996,129,116,115
-8.2961,23.1176,16.636699,130,171,109
-5.2501,22.5604,23.3871,172,213,146
-7.9824,22.0339,34.4722,153,199,114
-10.5532,29.116201000000004,44.079,136,146,146
-10.8428,21.640299,41.051599,165,171,154
-6.546100000000001,19.330101,21.749299999999998,254,254,254
-9.3042,23.930799999999998,16.2936,143,185,111
-2.7647999999999997,22.083899000000002,38.9469,254,254,254
-6.8835,21.934199,34.514700999999995,154,199,118
-7.4148000000000005,18.438999,16.992199,191,139,114
-5.3356,18.526298999999998,27.860200000000003,171,202,149
-7.4477,19.776699999999998,18.0435,164,194,140
-6.259399999999999,16.0601,23.360400000000002,141,190,109
-8.2257,24.051701,41.1331,183,198,148
-9.5814,28.176001,44.279,135,132,121
-1.3687,22.1717,40.0435,214,224,165
-9.8017,23.2346,16.4489,200,220,201
-8.5519,23.1095,16.685501,129,183,108
-3.0497,23.964401,40.1346,246,240,232
-8.248099999999999,25.162399,32.683501,159,197,133
-10.5709,21.6616,40.1696,157,181,122
-8.429499999999999,26.756798999999997,44.511899,197,169,161
-5.815,22.964001,34.248999000000005,254,236,212
-5.634399999999999,21.194801,30.087501,252,251,251
-2.5649,21.788999,39.186099,255,255,255
-9.7391,28.303099,44.384,164,164,147
-8.4204,26.449001,44.529101,255,251,243
-7.2773,18.4468,6.782100000000001,115,85,77
-8.8246,22.251099,34.346101000000004,164,201,128
-6.773,22.135399,30.505698999999996,173,186,124
-3.9600000000000004,22.822499,38.602,197,209,165
-5.964499999999999,23.1049,34.233901,193,183,139
-8.2429,22.213399,40.822399,200,197,181
-3.4543999999999997,23.7405,39.5717,205,204,171
-5.8998,17.7286,21.230599,176,195,145
-8.1967,24.1531,29.853499,188,204,149
-11.987,26.018399,32.037199,254,254,254
-7.7793,24.715,32.608199,255,254,255
-7.2597,24.1506,29.2889,149,189,111
-9.1752,25.636899000000003,29.3861,201,217,154
-7.8472,23.4773,41.159701,185,200,143
-6.1346,23.449101,35.787201,201,188,167
-7.412299999999999,23.8377,29.645500000000002,181,208,146
-9.4317,22.279701,35.671201,142,187,99
-9.6624,22.9928,16.6722,199,196,164
-10.0481,28.399,44.661099,171,172,148
-5.8549,17.677601000000003,27.6995,160,206,151
-7.5348,18.1052,12.8939,253,246,239
-8.0626,24.0356,29.8448,205,217,157
-5.904800000000001,21.8124,33.554801,255,255,255
-8.6855,22.088,35.724199,152,192,103
-9.9551,25.751400000000004,30.041099,128,181,99
-0.6165,21.773398999999998,40.598899,224,218,186
-7.7939,24.7142,32.9932,156,197,124
-7.2452000000000005,13.5775,27.536601,250,248,246
-7.3425,24.2772,29.158099999999997,253,252,239
-7.1853,24.728601,40.8999,179,181,210
-6.682,23.0352,29.653499,238,216,190
-10.3162,26.229398999999997,29.627200999999996,159,205,148
-9.2564,23.885299,16.302,147,185,112
-4.1960999999999995,23.508801,23.3219,191,221,214
-5.4915,20.5789,28.073701,254,255,254
-9.1029,21.067201,17.9492,138,177,117
-5.518,20.5745,27.958899999999996,244,250,255
-6.0622,23.944899,37.019101,254,255,255
-6.9224,24.751499,39.996201,185,169,154
-1.5195999999999998,22.672901,40.201800999999996,204,216,142
-7.6335,24.769199999999998,28.994398999999998,253,254,255
-8.8215,24.024101,33.592099,255,255,254
-7.475099999999999,17.0442,27.466401,176,210,171
-11.5272,22.312699,39.5899,185,210,156
-8.8162,26.596501,44.264399999999995,254,249,237
-11.8414,26.047999,32.127199,183,215,147
-8.1399,23.0783,41.2157,144,145,137
-5.6667000000000005,18.3761,27.858200999999998,165,209,166
-11.0581,29.4476,44.508401,118,95,86
-6.0584,19.598299,23.537,197,164,162
-10.270700000000001,28.781399,44.04,128,139,140
-7.241899999999999,15.484001,27.4317,167,202,125
-10.7097,29.096401,44.3937,159,154,134
-9.5929,22.807799,16.8983,253,254,255
-5.5386999999999995,20.7046,24.002200000000002,183,206,146
-9.706299999999999,21.823600000000003,17.437799000000002,195,215,179
-7.8439,20.177400000000002,17.942899,151,196,107
-6.525799999999999,18.9982,21.8899,240,211,200
-5.6158,20.1418,27.034301,210,145,125
-5.7546,21.848699,33.328399,254,255,253
-6.703,23.0433,30.039799000000002,142,191,103
-5.5972,21.752501,31.023201,193,145,127
-7.1048,17.378999,21.6875,255,254,254
-7.9371,22.036,34.223399,146,199,110
-10.3029,21.629,39.922601,161,175,140
-7.524699999999999,19.072400000000002,18.1583,249,253,255
-6.3746,24.3343,38.336799,211,220,229
-5.575900000000001,19.7652,25.670701,247,244,241
-7.167700000000001,22.492,30.534499999999998,159,186,123
-10.6601,21.795399,39.9203,172,190,153
-7.722999999999999,22.2599,17.0773,155,187,140
-10.148,21.7255,40.855801,197,190,174
-7.6836,16.5051,27.516499,238,230,211
-8.8573,24.9635,32.9447,173,209,145
-11.1155,28.837401,45.306599,254,254,254
-10.198699999999999,25.2875,32.8145,162,205,134
-7.353700000000001,13.680698999999999,27.507699000000002,169,199,143
-1.7534,21.623699,39.6346,253,247,245
-11.4848,22.0828,39.336801,177,212,163
-9.9477,21.295001,40.542001,162,153,148
-6.4472000000000005,15.3721,27.311701,156,196,113
-6.322800000000001,19.4104,22.3194,253,254,252
-7.4369000000000005,23.232,30.3211,152,189,130
-12.936801,27.348199,30.724299,180,215,143
-10.0966,27.872601000000003,44.847500000000004,240,215,194
-6.1901,14.9803,27.383000000000003,154,197,138
-7.721,24.8303,28.950101,249,252,254
-10.097100000000001,22.7856,41.344899,199,179,141
-5.8498,22.659399999999998,33.686101,253,253,253
-6.1033,23.233201,35.4321,253,252,252
-11.7469,27.000400000000003,31.121001,228,255,255
-6.933300000000001,18.6995,19.8751,252,243,235
-6.899900000000001,23.708399999999997,33.675101000000005,190,217,150
-2.9544,23.3753,39.638701,206,218,171
-7.5891,15.168400000000002,27.511099,174,207,155
-8.1151,22.822200000000002,16.738699,136,176,103
-5.7203,19.867299,25.530699000000002,201,137,113
-11.4924,26.677099,31.562999,180,218,140
-9.4603,21.636400000000002,40.642399000000005,193,192,169
-7.424899999999999,18.2382,14.241000000000001,181,123,96
-5.8225999999999996,22.9863,33.642501,167,142,108
-8.283100000000001,24.4075,41.033500000000004,187,164,123
-11.1545,26.3473,31.872099999999996,170,213,141
-7.8432,24.913300999999997,32.736399999999996,161,199,146
-1.5673,21.9648,39.804399000000004,211,225,163
-7.373399999999999,18.543001,17.9875,207,170,154
-8.394,22.057,33.786801,242,234,219
-10.559000000000001,26.544201,31.174901,222,233,218
-3.6591,22.3142,38.605601,218,168,139
-6.3284,21.932501,34.063500000000005,152,198,109
-0.3427,21.8398,40.709299,254,254,254
-7.4681999999999995,18.390299,11.286100000000001,152,109,94
-6.8348,22.003099000000002,33.5722,162,210,117
-9.5153,26.142901000000002,29.3906,137,184,69
-7.4152,21.218598999999998,17.3233,231,241,255
-6.624199999999999,16.778000000000002,22.500999,96,153,55
-6.9137,24.6105,39.854199,249,251,248
-7.9527,21.475799000000002,17.399199000000003,152,199,115
-5.529,20.108099,26.1704,255,255,255
-10.0832,21.327899,40.043199,168,186,158
-6.9155,24.8023,40.291101000000005,178,171,170
-9.2964,22.176499999999997,40.949699,200,206,181
-7.3473999999999995,18.2951,11.982800000000001,252,249,251
-10.5415,25.782201,32.407500999999996,161,203,131
-10.869900000000001,21.7968,40.480301000000004,181,199,140
-11.4245,29.926198999999997,43.971199,224,163,151
-7.6042,19.0569,18.1234,245,247,255
-9.618500000000001,25.393099000000003,29.996201,143,196,121
-9.5037,25.539801,32.575399,183,219,159
-10.6403,29.115501,43.981901,99,97,108
-11.0564,21.851200000000002,39.629999,198,213,178
-7.3515,24.5663,40.993401,198,187,200
-5.6267,20.8445,29.141599000000003,210,153,132
-7.345599999999999,18.0843,15.7919,227,192,177
-10.889600000000002,25.731099,32.413799,156,197,114
-6.1978,23.945899,36.946499,188,188,193
-7.605199999999999,16.985400000000002,27.393600000000003,246,244,239
-1.7119,22.180600000000002,39.788499,206,224,158
-8.4789,20.584600000000002,17.9759,127,177,104
-10.9958,21.6741,41.1026,162,181,189
-6.0592,15.8894,23.582900000000002,233,249,249
-6.9983,23.607799,29.654199,149,195,115
-9.8001,22.3553,36.570299,141,193,115
-5.7225,22.6436,32.994099999999996,188,187,138
-6.048,16.180199,27.3848,171,207,158
-7.5817,23.3413,30.331501,167,194,145
-7.3416,18.383399999999998,17.5466,253,252,251
-7.9305,23.827299,29.921699,206,220,159
-7.0068,25.238599999999998,41.406399,252,255,255
-1.3535,23.2243,40.6398,247,250,251
-5.0016,21.900199,23.616301,157,196,120
-9.2995,26.166099,28.611499000000002,255,255,255
-7.0851999999999995,23.1741,29.987901,173,203,142
-5.109,17.1691,27.739900000000002,245,246,255
-6.883699999999999,22.0099,33.572599,156,205,107
-8.071,23.2454,30.5877,154,185,130
-9.572799999999999,27.948701,44.518799,121,115,136
-1.4824,22.5609,40.153199,204,204,162
-9.7607,22.3492,36.4636,134,186,101
-6.1932,14.884400000000001,27.406901,149,192,133
-6.0365,23.4405,35.6233,203,180,146
-5.3381,17.927599999999998,27.822198999999998,160,196,134
-6.6491,19.1278,21.432801,184,115,101
-12.8043,27.254999,30.853301,186,226,165
-7.0614,18.645598999999997,19.4378,254,251,248
-10.6906,22.087599,38.369599,252,253,255
-2.4905,22.1828,39.369600999999996,199,217,144
-6.502,17.555799999999998,21.5091,154,194,92
-6.8727,22.055601,30.298399999999997,253,254,248
-10.438799999999999,28.866999999999997,43.800801,255,239,229
-10.474,27.000901,28.8342,254,254,254
-7.2731,17.5593,27.379799,252,255,255
-6.580900000000001,18.9953,21.834400000000002,234,212,197
-5.9895,22.5366,23.221099000000002,225,215,185
-12.4065,27.012900000000002,31.186700000000002,182,216,143
-10.7075,26.542801,31.535801000000003,151,194,107
-7.710699999999999,24.071001,40.956801,184,201,155
-5.9662,18.010201000000002,21.0136,254,254,254
-5.4234,24.037901,38.407299,185,185,166
-7.4127,24.305101,29.091001,253,254,253
-7.2517,25.357401000000003,42.138499,252,250,250
-5.6746,19.953001,26.137599,211,156,137
-11.8549,26.941201,31.282200999999997,155,201,130
-10.6018,21.7178,40.437001,175,184,122
-4.8977,23.5819,38.681099,199,195,181
-10.523100000000001,28.882398999999996,44.525501,107,88,93
-6.5482,17.578,27.597298999999996,175,207,156
-3.4102,23.074301,39.135101,197,214,160
-6.481299999999999,16.391601,27.369601,167,202,144
-9.0662,21.7678,17.3776,163,208,137
-6.4781,21.9503,34.064999,153,200,122
-5.9935,16.825499999999998,27.502900000000004,173,208,160
-8.0314,24.776298999999998,29.325399,166,204,120
-5.6256,21.149901,29.385301000000002,244,244,247
-6.274299999999999,22.030801,32.922101,171,185,131
-5.5313,21.554799,30.704299000000002,210,195,201
-5.66,19.941901,27.787200000000002,254,255,254
-8.329699999999999,25.435001,28.785898999999997,241,229,206
-5.1049,18.8071,27.840099000000002,254,255,254
-9.8897,27.460599000000002,44.5463,163,173,196
-11.0474,29.483899,44.0678,113,92,101
-5.7857,16.913600000000002,22.461499,182,212,171
-10.0563,26.113999,32.0292,155,201,139
-7.2612,18.330099999999998,15.7883,249,251,254
-10.9523,26.581698999999997,31.610899999999997,157,188,108
-11.0935,22.595399999999998,39.556599,202,209,148
-10.5885,22.339199,37.769601,205,207,167
-5.8462,16.5795,27.490401,169,207,158
-9.1997,22.919600000000003,16.7907,151,200,142
-5.1649,23.7315,38.623199,204,204,198
-9.8493,23.334201,16.4552,168,203,164
-6.389,21.9952,33.674499000000004,151,198,102
-7.4181,25.8349,43.140699999999995,155,154,172
-1.3054,22.3196,40.193099,206,228,164
-7.417999999999999,18.0305,13.836799999999998,255,252,246
-8.8645,22.246499,34.3914,153,198,110
-3.2137,22.163100999999997,38.709199,255,254,255
-10.7798,29.1715,44.510999,153,131,117
-5.483,21.896499,32.035699,255,253,249
-7.251,24.4454,32.784101,236,235,252
-10.392,21.4926,40.4039,177,203,148
-8.108500000000001,26.048499000000003,44.221500000000006,123,111,123
-7.8403,22.012999999999998,36.356899,140,194,126
-10.994299999999999,21.7338,40.613499,189,193,142
-10.001999999999999,26.550701,29.225700999999997,175,203,125
-9.0346,27.5013,44.156799,255,254,254
-6.0565,19.636001,23.6508,223,188,179
-4.6516,24.656001,22.9858,163,208,133
-6.4329,16.432901,22.831701,254,253,253
-4.18,22.872500000000002,38.295998999999995,254,254,254
-10.754199999999999,25.331101,32.765001,168,206,143
-8.8547,25.751701,32.182199,174,208,143
-7.5447,23.522100000000002,41.0245,188,190,141
-8.627600000000001,25.091401,29.481199000000004,156,204,123
-7.3132,24.5535,32.8731,200,225,187
-6.8476,24.5699,39.7686,252,253,251
-6.2028,15.643299999999998,23.7983,165,191,130
-6.7334000000000005,14.0324,27.477399000000002,254,254,252
-6.0306999999999995,21.9961,33.371899,155,198,120
-11.6275,21.970101,40.011001,254,254,254
-5.8515,19.785801,24.341799,253,253,253
-11.2418,21.5517,40.665999,254,254,254
-8.3879,22.056700000000003,34.9206,145,196,105
-9.9274,28.428900000000002,44.482200999999996,124,101,101
-3.5261,22.767200000000003,38.851401,199,212,168
-6.5577,21.834300000000002,34.965101,244,248,255
-5.567,21.955500999999998,32.038301000000004,238,215,202
-10.371500000000001,28.423199,44.932899,182,176,156
-10.1175,26.377401,31.413200000000003,234,240,217
-9.750399999999999,25.938498999999997,32.179001,174,209,146
-10.866000000000001,29.485899,44.022399,180,165,154
-4.4495,22.6078,23.5006,151,204,114
-8.1374,23.4348,41.215301,193,211,160
-9.755600000000001,23.0708,16.5014,204,216,198
-5.9077,23.413201,34.983599,252,255,255
-5.6297,21.4454,30.785200000000003,252,252,254
-5.8463,21.9377,33.467799,210,237,245
-9.100800000000001,23.524,41.310701,182,177,120
-2.8663000000000003,23.713399,40.000901,206,211,171
-6.483600000000001,15.6334,23.641499999999997,255,255,254
-6.536899999999999,19.215401,21.837500000000002,186,121,105
-7.9351,21.9661,36.5199,174,213,206
-11.1621,29.217499000000004,44.854599,146,139,145
-6.9511,17.349701,27.567601000000003,176,205,147
-10.0396,27.869701000000003,44.871899,182,166,163
-9.5067,22.3239,17.282701,144,192,118
-5.1531,24.308699,22.842800999999998,182,195,166
-8.049199999999999,26.185101,44.680101,155,201,229
-12.5477,26.658201,31.377301000000003,217,222,192
-6.3931000000000004,24.2817,38.2471,196,164,122
-5.4577,20.044,27.1956,253,254,254
-5.6033,22.1461,31.849,236,192,166
-5.3159,24.0624,22.7483,253,254,254
-6.6495999999999995,16.2306,23.1903,255,252,242
-7.3934,24.027801,40.863499,201,210,164
-10.4155,27.107,29.059801,169,209,144
-9.5453,21.338101,17.7092,215,222,195
-6.2402,16.183500000000002,27.367401,168,205,148
-9.415999999999999,25.990501,29.440999,147,195,92
-5.6103,20.3152,24.1007,254,254,254
-3.5554,23.437899,39.326799,201,213,178
-7.7724,13.661399,27.414399,244,245,254
-6.3134999999999994,21.9511,33.894601,165,209,130
-9.8338,22.321101,35.341799,251,249,255
-5.3766,19.4951,27.841601,180,186,173
-9.5992,25.505599,29.8987,163,204,128
-6.1727,23.9391,37.786701,255,253,253
-11.3895,25.732300000000002,32.360101,169,208,142
-8.6922,22.109801,35.173100000000005,145,192,110
-9.683,28.116000000000003,44.5741,152,134,126
-5.35,21.015900000000002,23.8975,170,195,140
-8.4382,24.366701,41.026101,252,247,246
-8.651399999999999,22.669201,17.043801,163,208,144
-6.715999999999999,24.4555,39.197299,200,181,173
-2.6125,22.6748,39.4503,198,217,153
-8.6768,25.5548,28.729299,255,239,233
-5.8124,19.422901,28.008601,172,210,154
-9.9935,22.414599,41.223899,197,183,164
-5.9167,22.5668,23.252200000000002,167,208,163
-6.3011,16.715901,22.5768,149,182,115
-8.0509,24.912301,32.8866,148,187,119
-5.4841,21.096899999999998,29.721299000000002,254,254,255
-5.8832,22.0146,33.0194,154,193,120
-5.805400000000001,21.965601,33.5246,253,254,254
-12.095699999999999,26.662001000000004,31.548600999999998,164,213,143
-3.0124999999999997,23.475299999999997,39.651998999999996,207,213,150
-10.5922,21.9769,41.177401,198,190,178
-5.881200000000001,23.0676,34.584001,244,211,191
-5.4911,20.3768,28.180899999999998,254,254,253
-1.5568,22.922598999999998,40.334901,210,221,158
-9.4012,27.7731,44.123101,249,216,204
-7.352799999999999,18.3015,11.7296,244,233,231
-7.2157,18.146101,15.441099999999999,220,213,216
-5.2915,16.798500999999998,27.619000999999997,166,204,174
-10.6353,21.492299,40.618899000000006,183,192,126
-8.938799999999999,22.1691,36.129901,150,195,115
-7.068199999999999,25.369701,41.6244,218,216,226
-7.4140999999999995,17.202801,27.287999000000003,255,255,255
-7.4369000000000005,18.1429,14.737,189,125,97
-6.3927,14.6786,27.400999999999996,153,194,127
-7.7509,25.017101000000004,32.509600999999996,254,255,255
-7.3076,18.2915,15.034699000000002,228,227,234
-9.4471,22.200598999999997,35.1473,149,191,109
-3.1648,22.2698,38.843301000000004,217,211,174
-9.129900000000001,22.1779,34.6232,149,192,89
-6.793100000000001,14.724401,27.347299000000003,155,198,119
-6.6243,22.494499,30.436000000000003,145,184,114
-9.6908,23.078801,41.370900999999996,190,186,148
-6.0137,24.091201,37.834299,212,205,218
-4.4746,23.8171,39.002201,176,187,152
-10.5849,21.662501,40.200201,160,189,129
-7.1452,14.778399,27.378801000000003,171,203,139
-4.5987,22.808400000000002,23.442499,167,208,121
-9.948799999999999,24.647801,33.2481,165,199,129
-5.6327,20.3486,27.947199,211,145,122
-5.596,18.483099,27.887099999999997,172,208,165
-8.3052,21.4881,17.397501000000002,150,203,113
-9.5983,22.979,41.339901,198,191,149
-5.7113,19.889601000000003,27.835101,250,251,255
-9.6557,22.893199,16.5875,253,252,252
-7.3885000000000005,18.3617,11.5591,157,128,122
-7.6046000000000005,17.255200000000002,26.844901,251,255,255
-6.9045,23.9952,33.2838,248,248,250
-7.1218,23.691699999999997,29.742,146,199,117
-7.443700000000001,15.081599,27.451900000000002,177,204,133
-7.8931000000000004,22.578599999999998,41.008499,199,194,160
-6.7635000000000005,18.789101,20.588601,254,254,253
-5.5436,22.037499999999998,32.761899,250,255,254
-8.7446,25.003099000000002,32.9225,172,214,142
-9.1512,27.555901,44.4114,155,147,160
-7.3835999999999995,18.133999,15.740198999999999,210,158,132
-9.4374,22.1347,34.919199,206,197,158
-3.6008,22.722501,38.772801,203,216,158
-7.271800000000001,24.389499,29.130501,244,235,221
-9.3073,25.617599000000002,29.4714,203,215,149
-7.1452,23.9158,29.293299,199,201,148
-7.4997,23.704401,33.684999,159,201,114
-8.3085,24.276598999999997,33.4052,166,204,131
-5.0047,24.654201,22.7448,254,254,254
-5.5383000000000004,19.917899,27.952999000000002,251,250,249
-8.843,22.5325,41.091001,193,198,171
-6.3448,18.180699999999998,27.723198999999997,176,214,164
-5.5115,20.948499,29.443899000000002,251,252,254
-5.0347,23.687001,38.5842,175,184,139
-7.449999999999999,18.493301000000002,17.3871,186,129,106
-8.7919,23.629799000000002,41.269299,189,185,147
-7.2875,21.9697,35.726401,149,190,127
-6.7125,18.1872,27.714299999999998,168,209,156
-5.3795,20.306601,26.949500999999998,250,254,254
-9.743599999999999,26.611,28.820199000000002,249,255,254
-6.6585,18.897100000000002,21.5379,254,253,252
-7.2148,18.2032,6.8543,65,59,62
-6.414899999999999,19.2937,22.2848,195,137,127
-8.7145,23.6579,30.7749,250,255,254
-5.8084,20.6149,24.0229,167,200,137
-6.404999999999999,24.0392,37.5599,219,149,123
-7.3012,18.690901,18.587500000000002,205,148,120
-6.457699999999999,16.8281,27.417201000000002,184,213,158
-4.273,22.9091,38.313699,254,254,252
-7.5694,19.664501,18.127800999999998,155,196,117
-10.589,27.0125,29.060399999999998,245,227,196
-7.7138,14.222900999999998,27.3882,247,249,255
-5.6476,23.7895,38.282901,202,182,173
-10.2353,22.3931,37.373098999999996,152,197,127
-11.4453,26.1917,32.0196,162,205,133
-7.2331,18.799599999999998,18.9357,200,135,107
-9.2403,22.221901,35.865501,134,190,102
-9.7816,28.3279,44.293699,188,200,182
-8.1936,24.775501,33.052599,156,198,132
-5.3585,21.886501,32.3221,254,253,245
-7.162399999999999,18.532901,6.9395,107,70,64
-6.7689,24.6832,39.532101,188,168,144
-8.0319,22.046499999999998,34.318101,147,196,101
-7.4477,18.395101,16.967601,203,145,114
-6.615500000000001,22.947100000000002,29.923901000000004,162,194,129
-5.5710999999999995,20.8482,28.6414,249,251,253
-2.9049,23.174199,39.537799,201,209,154
-10.130799999999999,28.022999,44.973600000000005,171,166,164
-9.3545,26.301398999999996,28.705399999999997,244,239,227
-7.211099999999999,18.002699,15.9834,227,226,219
-7.3631,17.3583,27.110201,252,255,255
-0.2474,21.826001,40.8277,217,203,172
-5.4487,20.3775,27.109501,243,250,255
-5.6138,20.746601000000002,28.934898999999998,213,154,126
-5.5243,20.8085,28.382500999999998,245,250,255
-9.4196,27.819498999999997,44.066301,254,253,251
-9.8087,23.117099999999997,16.447400000000002,243,250,250
-7.3669,18.784298999999997,18.0921,154,121,113
-5.5413,20.1883,28.006399,219,222,228
-6.3325000000000005,24.310499,38.280901,249,252,253
-8.988100000000001,23.176301,41.274399,187,191,146
-7.038600000000001,14.5779,27.382001,150,193,110
-7.0471,23.3659,29.959198999999998,149,194,130
-5.4853,19.824400999999998,28.049099,249,251,250
-7.703500000000001,16.585,27.437001,251,250,251
-9.7882,28.116000000000003,44.677901,144,127,116
-6.250500000000001,23.684200999999998,36.886901,252,252,251
-2.9099,23.7654,40.040901,210,211,173
-7.4895000000000005,19.03,17.952099,255,255,255
-7.5001,24.052,33.487001,176,209,140
-9.8472,25.5514,32.590601,168,208,134
-10.5495,22.3341,41.203099,183,171,156
-8.351,25.367001000000002,32.5028,163,201,129
-4.5459,23.880399999999998,38.972899,168,175,131
-7.7575,20.771199000000003,17.634900000000002,155,202,116
-9.9919,28.223699000000003,44.811800000000005,178,149,130
-5.3514,22.527,23.4081,170,212,151
-7.1108,23.085301,30.104801,182,208,154
-7.499300000000001,13.462300999999998,27.4627,188,210,163
-5.6266,20.098399999999998,26.9903,205,139,122
-2.214,23.2133,40.0031,207,213,148
-7.561800000000001,25.902199999999997,43.491301,167,161,169
-9.602,21.8191,17.4474,156,198,138
-1.2914,23.1359,40.676099,243,251,252
-7.2648,25.7121,42.733601,224,228,230
-6.2259,23.2666,33.805701,192,147,142
-7.4298,24.4398,40.8741,197,160,129
-5.8717,23.3386,34.973499000000004,246,249,249
-6.3801,15.42,23.7887,249,251,255
-6.8605,23.735899999999997,33.660700999999996,163,201,137
-8.5401,22.0798,35.725501,147,196,122
-8.2474,23.9666,33.6045,166,207,136
-5.2490000000000006,22.91,23.303699,169,214,138
-6.1946,23.6992,36.268499,173,165,135
-5.2889,24.0877,22.645301,255,255,255
-5.5968,21.1421,29.640099,190,138,124
-11.469999999999999,29.931501,43.846899,254,254,253
-5.7839,15.0354,27.360401,250,254,254
-7.4225,18.341599,12.5414,179,138,128
-6.9221,25.167500999999998,41.174099,255,255,254
-6.9008,18.2377,20.683099,155,192,112
-12.4058,26.605099,31.494501000000003,173,213,149
-8.9637,25.055899999999998,29.6354,188,210,139
-12.292200000000001,26.042199,31.961399,240,254,254
-8.899700000000001,21.5304,17.4531,141,193,121
-6.9747,21.9374,34.715599000000005,156,199,126
-9.3488,24.3094,30.3763,254,254,254
-8.6754,23.6223,30.7675,250,255,255
-5.6847,19.661599,24.9419,232,225,226
-6.4099,24.254,38.3434,173,170,148
-8.6065,21.3735,17.466401,146,194,118
-6.4666,16.693699000000002,22.493800999999998,252,251,248
-10.3442,28.7617,44.320101,98,91,93
-9.3025,21.3319,17.7028,145,187,119
-5.7798,23.089100000000002,22.981099999999998,198,205,169
-10.7591,25.060399999999998,32.936001,252,251,245
-7.2228,18.5158,7.0902,132,102,89
-8.675099999999999,24.4284,30.090901,148,192,121
-6.5594,14.4889,27.3671,159,196,132
-6.6683,21.855401,35.287899,255,254,255
-7.442500000000001,24.626499,40.989399,188,149,137
-9.192,21.5799,40.548199000000004,197,190,171
-5.5125,20.598599,28.234899000000002,223,193,182
-7.0872,22.0258,33.415898999999996,161,200,119
-7.4325,18.4238,11.6843,251,240,234
-6.8623,25.080901,40.744501,252,253,253
-7.144399999999999,17.4353,22.1267,164,185,129
-8.842500000000001,20.9986,17.8653,147,188,104
-8.8333,25.5752,29.2705,148,200,112
-8.189,23.7729,30.248699000000002,117,172,88
-9.546399999999998,26.165899999999997,31.842399,173,213,149
-7.7528,13.708401,27.327800000000003,243,245,255
-2.7916,22.587699999999998,39.2694,191,205,114
-6.5606,17.552200000000003,21.5532,164,194,89
-3.1752000000000002,23.451801,39.556101,207,214,163
-9.651,26.173800000000004,31.8537,170,209,154
-8.987499999999999,23.568501,16.430600000000002,150,176,119
-7.4098,21.124201,17.4429,254,254,254
-8.759400000000001,24.5277,30.019999000000002,130,184,113
-5.2797,23.473800999999998,38.1576,255,254,253
-6.027,23.7976,36.718401,254,254,254
-11.556,26.742399,31.476399,166,209,140
-7.4877,20.890801,17.521501,163,197,154
-6.6644,15.8924,23.477999999999998,254,254,254
-5.9433,17.423999000000002,21.6271,145,187,98
-5.7813,21.877,33.278999,253,254,254
-5.5619000000000005,22.852901,23.2518,156,206,115
-9.1881,22.219101,35.9229,139,191,105
-5.9058,21.160001,23.7436,174,212,173
-9.4856,28.1248,44.227498999999995,173,182,160
-7.9192,23.677899999999998,30.2479,157,196,101
-10.0021,25.334200000000003,32.7627,136,188,101
-9.751999999999999,22.7184,41.294599,198,188,161
-10.3053,25.7826,32.413,160,206,131
-8.1458,22.127099,40.700998999999996,254,244,234
-7.3258,18.244299,16.839699,226,203,193
-7.841099999999999,26.011699,44.0227,155,126,121
-6.0487,16.5096,22.862101000000003,132,180,97
-11.307300000000001,25.311899,32.612699,196,241,254
-6.2052000000000005,22.351199,30.239298999999995,139,187,129
-9.181000000000001,27.371401000000002,44.380599,178,156,143
-5.6468,21.2686,30.125701,219,181,164
-11.0094,28.833600999999998,45.094901,175,178,172
-5.6605,17.3158,27.663901000000003,180,212,177
-7.889799999999999,24.8357,32.553101,254,254,254
-6.403300000000001,17.4886,27.5657,173,205,137
-4.0483,24.1788,39.425099,210,206,189
-2.9049,23.7776,40.084001,211,211,172
-11.8435,25.906000000000002,32.147899,253,254,251
-5.0269,23.964199,38.6601,181,184,139
-6.297,16.0841,27.345201000000003,170,206,154
-8.4046,20.3777,18.0612,147,187,115
-8.1518,25.241899,32.5703,161,202,140
-7.1934,17.027,27.460599000000002,182,215,167
-10.6523,26.554501000000002,31.439701,171,202,130
-6.0207,23.807999,36.699101,254,254,254
-9.5027,25.691198999999997,32.4249,176,211,146
-7.3712,18.5018,17.0846,163,122,114
-5.950699999999999,16.6921,22.641701,151,189,107
-10.4932,21.4717,40.770700999999995,180,170,145
-8.844100000000001,27.051799999999997,44.335899,222,160,149
-8.581999999999999,24.179100000000002,30.221701,139,194,129
-10.857600000000001,22.378500000000003,39.760399,204,208,175
-5.7741,21.8934,33.395299,249,252,255
-4.138,24.010301000000002,23.190799000000002,137,151,132
-9.6008,22.8806,41.333899,197,186,149
-2.9694000000000003,22.024,38.894701,254,253,253
-6.5906,18.374699,27.7329,179,215,173
-8.255700000000001,25.292399999999997,28.756499,252,255,255
-5.7096,15.695301,27.318399999999997,167,201,140
-8.6593,25.083601,32.861999,164,209,144
-11.058300000000001,22.5088,39.345899,216,200,163
-7.0285,23.601501,33.539101,255,250,228
-7.6998999999999995,23.4761,41.084998999999996,173,190,120
-8.0335,20.7351,17.675801,153,207,121
-9.0355,22.2085,34.5171,146,194,99
-8.049000000000001,25.2608,28.819501,253,255,254
-6.5283999999999995,16.1249,23.1988,254,254,255
-6.9215,16.8415,22.845399,139,192,148
-6.990499999999999,17.080501,22.686601,114,177,101
-9.9993,25.596499,32.566199000000005,172,208,121
-6.3459,16.561999999999998,22.777900000000002,159,186,109
-9.902,25.052801000000002,32.972199,162,202,118
-5.9435,18.8722,27.900799999999997,185,218,163
-1.0316,21.698500000000003,40.150201,255,254,252
-7.7378,22.4408,40.840399,255,253,250
-6.5053,15.965199,23.5093,168,202,145
-8.094899999999999,20.1297,18.054301,147,192,117
-5.701,19.8465,27.5538,248,251,255
-11.1451,22.271400999999997,39.842501000000006,202,212,158
-6.2141,24.111401,37.536299,184,148,135
-5.4688,20.106301,27.0345,255,255,255
-6.5842,18.391099999999998,20.5458,167,198,118
-2.5098,23.865899,40.2787,254,254,253
-8.3846,22.091199,36.1711,145,189,98
-8.0465,24.8643,29.208099999999998,183,216,162
-10.9375,29.463199,44.371101,108,95,94
-6.299799999999999,15.687599999999998,23.7397,170,201,132
-9.0959,21.992099,40.7875,197,199,177
-10.4494,25.446500999999998,32.673499,166,206,135
-7.0388,17.2221,27.511999,174,210,161
-7.3657,18.5395,8.0372,91,71,63
-7.235600000000001,18.3741,17.185099,243,246,248
-9.985800000000001,28.514501,43.659899,255,253,249
-7.5849,18.2743,12.146600000000001,178,115,89
-8.4069,22.740800999999998,16.966601,157,203,124
-6.8081000000000005,16.714101,22.865099999999998,147,188,124
-6.3568,19.161899,22.582,225,196,186
-7.9552,19.468801,18.3282,156,195,118
-10.6257,21.488,39.914,191,208,172
-9.668899999999999,22.4014,37.6295,173,212,205
-10.1722,26.032901000000003,29.887301,132,183,118
-5.1472999999999995,18.0819,27.807599,177,204,186
-5.4493,16.781299999999998,27.6041,167,203,159
-5.4507,16.426199999999998,27.544701,156,197,147
-7.8179,23.288600000000002,41.135498999999996,193,202,143
-7.803699999999999,24.591099999999997,33.1175,152,200,137
-6.9995,18.801499999999997,19.0283,233,233,235
-9.123199999999999,25.289299999999997,29.644701,162,203,132
-8.475000000000001,24.430799,29.876198999999996,154,200,134
-9.896,25.716001,30.002701,136,185,98
-7.6112,24.6887,29.050699,246,244,239
-6.2245,19.450899999999997,23.135599000000003,200,124,103
-5.16,21.5143,23.723701,161,197,141
-9.738900000000001,23.840301,16.251799,213,224,218
-4.4189,23.026,38.346201,213,183,157
-8.4987,25.479501,32.415301,167,206,135
-7.048699999999999,24.800301,40.3698,183,160,150
-10.215100000000001,28.277299,44.890299,142,138,140
-5.9089,20.620701,23.6063,253,254,254
-5.1858,24.392401,22.7461,254,255,254
-8.4071,24.9549,32.941499,168,207,139
-2.3111,23.730101,40.303001,238,227,222
-8.730400000000001,25.779398999999998,32.157999,174,212,160
-6.443899999999999,23.517101,33.621499,254,254,252
-7.0714,22.9452,30.333701,165,198,135
-10.6929,21.9235,39.5109,152,162,143
-12.004,26.312198999999996,31.892899000000003,175,212,144
-7.673000000000001,23.277998999999998,41.0743,190,191,128
-12.1338,26.384199000000002,31.763101,177,218,150
-5.9949,16.674,27.484599,168,208,157
-7.3808,18.3929,11.7486,224,214,211
-8.3337,19.785701,18.402299,244,238,223
-11.7291,22.236501,39.726800000000004,250,249,255
-10.120899999999999,28.371501,44.725099,162,142,131
-8.8083,25.976399,31.895699999999998,254,255,255
-6.178,19.250201,23.235400000000002,253,246,238
-6.9276,18.4135,20.137900000000002,255,255,255
-5.7318,19.8146,27.732801000000002,246,251,255
-10.3869,25.885099,32.3194,166,204,119
-10.1973,25.9139,32.2988,175,215,149
-3.4979999999999998,22.676600999999998,38.828,203,217,163
-7.002,16.2267,27.419999,171,199,140
-5.0045,23.6232,38.6361,183,175,150
-6.9147,24.7483,40.026500999999996,178,169,156
-6.0494,16.0248,27.348,182,215,178
-8.2499,26.564898999999997,44.3499,255,255,255
-11.552800000000001,26.802301,31.381999999999998,159,198,119
-8.0372,22.059301,36.171901,142,194,108
-2.8034,22.886901,39.4279,190,214,138
-10.2782,28.600901,43.697801,255,255,255
-7.7025999999999994,24.806,28.9511,248,253,255
-6.2734,19.2487,22.888801,203,146,126
-8.615499999999999,25.547099,28.7,254,252,252
-5.8709,21.9992,32.785001,243,244,236
-3.7141,24.293899999999997,39.7008,255,255,254
-8.8973,21.071,17.801701,130,179,104
-6.3702,22.5793,29.941601000000002,155,177,119
-7.1811,18.2751,16.7455,246,250,255
-8.9551,26.048201,31.846999999999998,254,254,254
-6.1348,21.9862,33.524001,159,201,124
-7.5401,18.226901,11.7952,180,129,110
-8.3393,22.061600000000002,35.680099999999996,149,195,112
-7.051499999999999,23.554,33.754599,166,211,123
-9.8377,26.118401000000002,31.952599,164,204,135
-8.982,25.082200999999998,29.732299,133,190,103
-6.1956999999999995,17.754599,21.208199999999998,148,189,127
-3.6624,23.921201,39.5448,207,209,188
-7.4102,18.048000000000002,14.893298999999999,239,218,207
-5.0888,18.2282,27.759500999999997,253,253,252
-7.6358999999999995,15.7325,27.6503,181,201,147
-6.7508,18.4698,20.4216,167,213,111
-8.9492,24.176601,16.263901,167,207,140
-8.5832,22.1232,36.4669,143,190,117
-7.584200000000001,17.032599,27.3058,253,252,253
-6.1979,17.5614,21.4258,154,186,118
-8.533100000000001,26.829499000000002,44.5086,202,162,162
-5.765,19.8603,24.4295,253,254,254
-9.1959,25.206100999999997,32.792300000000004,178,209,138
